3
0.0498442 0.00496644 0.2332 
0.0596253 -0.061177 0.220704 
-0.00454404 -0.0190604 0.2387 
0.08653329999999999 -0.0270717 0.171929 
0.0111234 -0.0494106 0.187226 
0.0792182 -0.048362 0.2052 
0.0273314 -0.00343016 0.2387 
0.009787300000000001 -0.0216003 0.1862 
0.08490839999999999 0.00458699 0.168364 
0.063971 0.009298570000000001 0.139484 
0.0416556 -0.0171083 0.1632 
-0.027 -0.0279774 0.153709 
 0.041 -0.0532232 0.157506 
-0.0195873 0.0543149 0.2062 
0.0352393 -0.0311901 0.238582 
0.0165 -0.0664361 0.209471 
0.0209145 0.0535081 0.24128 
0.015398 -0.0247197 0.187815 
0.08903 -0.0366676 0.1842 
0.0525485 0.0615004 0.17992 
0.0366428 -0.0615 0.158903 
0.0156653 -0.0227154 0.158199 
-0.0155995 -0.0160942 0.239811 
-0.0216942 0.0373236 0.2432 
-0.0283614 0.008959480000000001 0.2332 
0.09616479999999999 -0.00750802 0.196479 
0.0241395 -0.0250528 0.2492 
0.0906139 -0.0025222 0.158904 
0.0185 -0.0732717 0.228673 
0.0310025 0.0615 0.16056 
0.0530337   0.05 0.203315 
-0.0322888 0.00241364 0.2387 
-0.019 0.0416552 0.157317 
0.00131116 -0.0449401 0.2432 
0.0165 0.0630666 0.210248 
-0.026983 0.00737054 0.155713 
-0.00645276 0.0362317 0.238699 
0.00450305 0.00579084 0.187815 
0.0649405 -0.0440496 0.1812 
0.0996152 0.0229233 0.180375 
-0.027 0.0388459 0.180571 
0.0150502 0.0269201 0.1812 
0.07406459999999999 -0.0172879 0.149533 
0.0377292 -0.0248319 0.1502 
0.0132381 0.0291434 0.1502 
-0.0227058 0.0592398 0.203671 
0.0443162   0.05 0.205078 
0.000958801 0.0184531 0.182363 
0.0485348 -0.038595 0.1502 
0.0713883 0.024775 0.132066 
0.0562064 0.0412363 0.2432 
0.0410123 0.00464587 0.2332 
0.0559462 -0.0103399 0.2387 
0.0894305 -0.012858 0.157579 
0.0249735 0.0357752 0.1502 
0.09403980000000001 0.009982909999999999 0.180685 
0.0956417 -0.0307276 0.187382 
0.0490436 -0.0227671 0.2332 
0.096638 0.0535771 0.201888 
0.0555729 0.0193857 0.2387 
0.0384474 -0.0387986 0.1502 
-0.0225118 0.0557126 0.235717 
-0.00719135 0.036122 0.247659 
-0.00631316 -0.0147046 0.1862 
0.0537596 -0.0563245 0.210614 
0.0956639 0.0432104 0.190754 
0.0153384 0.00456171 0.2332 
-0.02697 0.00388019 0.155737 
0.07978150000000001 0.0113719 0.165632 
0.031889 0.042557 0.1502 
0.048439 -0.033 0.239512 
-0.0159466 0.0223468 0.2387 
 0.062 0.0159124 0.231151 
0.0226938 0.0212301 0.1582 
-0.0131976 0.0588141 0.1502 
0.0540898 0.00361072 0.2492 
0.0165 0.0691078 0.19313 
-0.00620772 0.0559578 0.235043 
0.09545380000000001 0.032093 0.2052 
0.0165 -0.08223809999999999 0.195815 
0.044944 0.039854 0.2407 
0.018353 -0.0162953 0.1607 
0.0641636 0.00721157 0.2407 
0.084971 0.0156523 0.168553 
 -0.02 0.0262007 0.157245 
0.0185 0.0694963 0.206574 
0.0108639 0.0293843 0.1502 
0.0165 0.0800635 0.206648 
-0.00812678 -0.0249715 0.150201 
0.000366846 0.00577036 0.2387 
-0.0146547 -0.0452777 0.1842 
0.0115651 0.008096590000000001 0.2492 
-0.00986219 -0.0589617 0.22679 
0.0400986 0.0561464 0.1612 
-0.00300885 -0.0109197 0.1862 
0.0424061 0.057686 0.161205 
0.0294447 0.0211684 0.187815 
0.0235021  0.043 0.203368 
0.0346326 -0.043 0.192322 
0.0165 -0.0598826 0.164051 
-0.027 0.0123201 0.156806 
0.0527465 -0.0128206 0.2492 
 0.062 -0.0141557 0.238158 
-0.025262 -0.0552958 0.1502 
-0.027 -0.0471436 0.169111 
-0.027 -0.0470464 0.197049 
0.00617133 0.0351023 0.2387 
0.0866489 -0.0153638 0.172129 
0.0391399 0.0608425 0.221623 
0.06683699999999999 0.0176565 0.2052 
0.0428556 -0.0169504 0.233201 
0.05121 -0.0223981 0.18735 
-0.0152892 -0.0297588 0.2387 
0.0335084 0.0298972 0.2387 
0.0961743 0.0170756 0.196587 
0.0212058 -0.0207886 0.2387 
0.0224778 0.0450861 0.199559 
0.092417 0.009620149999999999 0.18023 
0.0375 -0.0542597 0.218839 
0.0681928 -0.00455426 0.141468 
 0.048 -0.0567039 0.170336 
-0.008791179999999999 -0.0540983 0.1502 
0.0445315 -0.0597431 0.224643 
-0.0118128 0.0172778 0.2332 
0.0995253 -0.0198356 0.180383 
 0.041 0.0386636 0.15648 
-0.000494934 0.0471427 0.2387 
-0.00467716 0.0575 0.158016 
-0.027 -0.0377431 0.194919 
-0.027 -0.009961950000000001 0.216027 
0.0509253 -0.0548185 0.211398 
0.0159042 0.020036 0.1502 
0.0165 0.08226310000000001 0.173378 
0.0355622  0.043 0.190769 
0.0347495 -0.020095 0.182295 
0.0236102 -0.0234178 0.1502 
0.0960486 -0.00480721 0.180687 
0.0508012 0.0533389 0.2052 
-0.027 0.0258846 0.161991 
0.0473542 0.0621741 0.217964 
0.0008222010000000001 -0.012348 0.192542 
0.0585227 -0.00333337 0.238612 
-0.027 -0.008962879999999999 0.16184 
0.00805558 0.026962 0.238693 
-0.0130904 0.0615005 0.183872 
-0.009739609999999999 0.0343556 0.243475 
-0.00679984 -0.00121166 0.1502 
0.0238902 -0.0570013 0.232176 
-0.027 -0.0123657 0.170615 
0.057287 -0.0599862 0.199344 
0.0908341 0.0514749 0.181443 
0.003239 0.00668388 0.187815 
-0.0276302 0.014025 0.2387 
 0.062 -0.0476791 0.178832 
-0.027 0.00549481 0.163794 
0.0761003 -0.00566451 0.151569 
0.0457976 -0.0374873 0.2407 
0.0685284 -0.0116733 0.134926 
0.0593229 -0.0615 0.172355 
0.0521009 -0.0203187 0.2387 
0.0302647 0.0483054 0.159714 
0.0185 0.07652340000000001 0.197119 
0.09031210000000001 -0.0320775 0.159263 
-0.00461828 -0.0135977 0.2332 
0.0534347 -0.00537123 0.2387 
-0.00620008 0.0600828 0.1502 
0.0563385 0.0169264 0.147116 
0.0474895 -0.0618414 0.198097 
0.051792 0.0617628 0.217236 
0.07450229999999999 0.0526663 0.205202 
0.08208940000000001 0.009584540000000001 0.163325 
0.0892367 0.0005559920000000001 0.176611 
-0.0101801 0.0250541 0.2492 
0.0585319 0.00932584 0.2332 
0.0668204 0.0531919 0.1842 
0.0431558 0.00692852 0.1502 
0.0162386 0.00118091 0.1502 
0.0818876 -0.000814717 0.169882 
-0.00278704 0.0525 0.157529 
0.023476 -0.00346591 0.2387 
-0.00548268 -0.0612827 0.1502 
0.0772573 -0.009736160000000001 0.131854 
0.09129230000000001 -0.00590229 0.186681 
0.0144999 -0.0155899 0.2332 
0.0461371 0.0331305 0.2407 
0.0116187 -0.0536612 0.184867 
-0.0173648 -0.00930564 0.2492 
 0.062 0.0144593 0.236033 
0.0165 0.0700196 0.212025 
0.00949238 -0.0368759 0.1812 
0.0557829 0.0529341 0.1502 
0.0416936 0.0138971 0.2387 
-0.0248457 -0.0128802 0.1632 
0.0453966 -0.0158807 0.2332 
0.0578375 0.000200101 0.241932 
-0.008587320000000001 -0.0615 0.154014 
0.0493937 -0.0577174 0.2062 
0.0306603 -0.0536358 0.166317 
0.00217811 -0.00744292 0.187852 
-0.0269999 -0.0544861 0.156043 
0.0722382 0.009897070000000001 0.151949 
0.0548868 -0.0267119 0.2387 
0.0728211 -0.035 0.135377 
 0.041 0.00702729 0.155052 
0.0789101 -0.054 0.199153 
0.07665810000000001 0.0122146 0.132454 
0.00409403 0.0346529 0.177876 
0.07078479999999999 0.0466731 0.1812 
0.0971578 -0.016632 0.185247 
0.0357867 0.03275 0.154864 
-0.0364915 -0.0010107 0.247314 
0.00573426 0.051435 0.242943 
-0.0064727 -0.0131213 0.2387 
0.0474498 0.0541616 0.1502 
0.0162019 0.0292565 0.2387 
  0.04 0.00213392 0.15049 
-0.0212946 0.0633007 0.20989 
0.0151945 0.0825 0.187992 
0.0290427 -0.00842795 0.196315 
-0.00792172 0.0615 0.177056 
0.00217338 -0.00404167 0.2387 
0.0305707 0.034341 0.2387 
0.051905 -0.0296438 0.178254 
-0.0249632 0.0499995 0.190358 
0.0255189 0.0538751 0.1582 
0.0225229  0.043 0.201401 
0.0600811 -0.0340342 0.2432 
-0.00906299 0.0615 0.161041 
-0.0127517 -0.0546068 0.179941 
0.0498981 -0.0411258 0.176203 
 0.062 0.0568892 0.2131 
-0.0269511 -0.008440039999999999 0.15359 
0.066104 0.00066177 0.2492 
-0.027 0.0274967 0.173215 
0.0515422 0.0581569 0.209423 
-0.0140632 0.0615 0.173359 
0.0598042 0.01443 0.2387 
-0.0274885 0.0179445 0.2407 
-0.027 -0.0335851 0.217102 
-0.027 -0.031573 0.233275 
0.00425544 -0.0440171 0.2407 
0.0436367 0.00326701 0.1632 
0.0335438 0.0280776 0.1502 
-0.019366 0.0598313 0.224401 
-0.0147875 -0.0239552 0.2387 
-0.008688980000000001 0.0575 0.152322 
0.0851069  0.043 0.188409 
0.0578179 0.0527482 0.22153 
-0.027 -0.0595105 0.187984 
-0.0149346 0.019037 0.248441 
0.0595251 -0.00229983 0.1862 
0.08232680000000001 -0.00427634 0.180465 
-0.00699748 0.0210425 0.1582 
-0.00250004 -0.06324399999999999 0.210122 
0.0454946  0.043 0.169541 
-0.0269894 -0.02976 0.151951 
 0.062 -0.0564367 0.174103 
0.08567619999999999 0.02124 0.2052 
0.0489104 -0.018961 0.238529 
-0.0196973 -0.0639854 0.199185 
0.0705419 0.0460755 0.2052 
0.0922564 -0.0242562 0.180147 
0.00651091 -0.0466573 0.2332 
0.0185 0.0600566 0.235298 
0.0185 0.0635946 0.182545 
-0.0203034 -0.0492492 0.243204 
0.062246 0.00499984 0.24893 
0.0293725 0.0341963 0.1842 
0.014769 0.050576 0.1502 
0.0489127 4.45656e-05 0.2332 
0.010286 0.0349516 0.2387 
0.0612364 0.0620672 0.196967 
-0.000854058 -0.00132167 0.2387 
0.0656886 3.16212e-05 0.137766 
0.00240831 -0.0114541 0.192128 
0.009726810000000001 0.0483337 0.2052 
0.0453852 0.0270487 0.2332 
0.0421844 -0.047497 0.228435 
-0.0265975 0.0288619 0.2407 
-0.027 -0.000551259 0.153469 
0.09676170000000001 0.0141567 0.203301 
0.0229953 -0.0209324 0.186202 
0.0485325 -0.0615 0.177462 
0.00769167 -0.043 0.189608 
0.0439849 -0.0552824 0.198672 
0.0556088 -0.0166455 0.2387 
-0.0255349 -0.000241046 0.2387 
-0.00267588 -0.0532807 0.220334 
0.0466214 -0.0539878 0.240456 
-0.0105913 0.0358874 0.1582 
 0.062 -0.0217091 0.213778 
0.0220474 -0.0202547 0.1812 
0.0567632 -0.0615 0.177982 
0.0411783 0.0449178 0.240416 
0.102873 -0.00667397 0.18009 
 0.062 0.0163291 0.21824 
0.0435966 0.0286919 0.2492 
0.06984940000000001 0.0220525 0.139262 
-0.0124857 0.0597618 0.200626 
0.0029091 -0.0615 0.187652 
-0.0104741 0.0543575 0.1582 
-0.0326124 0.00561938 0.237206 
0.0155474 -0.0491826 0.238713 
0.0229832 0.0354023 0.1842 
0.0138385 0.0499885 0.193379 
 0.062 -0.0415212 0.160978 
0.0133332 0.0445817 0.1842 
0.0602375 0.0424046 0.1502 
0.0223364 -0.0364856 0.2332 
0.105015 0.00381789 0.182899 
0.0738704 0.0202234 0.149339 
0.0849779 0.0156045 0.166813 
0.0263611 0.0615 0.19494 
-0.00673277 0.0366631 0.1502 
0.021992 -0.0108702 0.1582 
0.0838001 0.0196834 0.15845 
 0.062 -0.0541417 0.208187 
0.033445 0.0141239 0.2387 
0.0532404 -0.0571992 0.231632 
0.0234705 0.00644674 0.2492 
0.0114977 -0.0537039 0.179487 
-0.0102973 0.0322316 0.2332 
0.0251708 -0.00825007 0.2332 
-0.00414489 0.0334966 0.2332 
0.029664 0.0238173 0.2387 
-0.0214387 0.0131421 0.1632 
-0.027 0.00350102 0.171935 
-0.00596042 0.00243246 0.199745 
-0.0138963 0.0557618 0.235582 
-0.0168156 0.0414417 0.236958 
0.0991076 0.00853546 0.184439 
0.0183437 0.0575 0.150208 
0.0259916 -0.00633192 0.2332 
-0.0269937 0.0036691 0.160598 
-0.0231562 -0.0113162 0.2492 
0.0263973 0.0496298 0.1572 
0.0277678 -0.000379534 0.1502 
0.0051379 0.0255835 0.1502 
0.06835860000000001 0.000516145 0.141181 
-0.0149317 0.031541 0.2407 
-0.027 0.0435948 0.164588 
0.039557 0.0424954 0.181006 
-0.0269982 -0.0110404 0.159248 
0.018516 0.0126106 0.160531 
0.0901845 -0.0190575 0.159415 
0.0185 -0.0806241 0.227639 
0.0568206 0.0554902 0.236328 
0.0218509 0.0357435 0.2492 
0.0587995 0.0193501 0.2387 
0.0478775 0.00530631 0.2387 
0.0193705 0.0428985 0.1502 
0.0618094 -0.0575083 0.244394 
0.102127 0.018797 0.184171 
0.0461618 -0.0185456 0.233202 
-0.00181465 0.0304624 0.2332 
0.00254576 0.0324539 0.1607 
-0.027 -0.0250461 0.16255 
0.0744756 0.000350591 0.128979 
0.0312531 -0.0517982 0.188686 
 0.062 -0.0605309 0.167244 
0.07676330000000001 -0.015183 0.129604 
0.056396 -0.0615 0.183762 
-0.0217902 -0.00448152 0.152087 
0.0391581 -0.0159866 0.1862 
0.0314512 0.0230276 0.1812 
0.0436574 -0.0203199 0.1502 
0.0596038 0.0231992 0.1812 
0.0165 0.07800849999999999 0.18086 
-0.027 0.0531984 0.205445 
0.009446110000000001 -0.0169146 0.2332 
0.00314493 0.0260711 0.186353 
-0.0231282 -0.0197376 0.1502 
0.0254685 -0.00400202 0.150201 
-0.0174143 -0.0570488 0.225957 
0.00138204 0.0429995 0.180247 
-0.0251374 -0.036049 0.1502 
0.0300289 0.00586833 0.194086 
0.0311764 -0.0341834 0.2387 
  0.04 -0.039137 0.154767 
0.0881344 -0.0168658 0.161858 
 0.048 -0.0582107 0.192595 
0.0301134 -0.0535001 0.199268 
0.00647413 0.0390333 0.2332 
0.0294385 0.030741 0.1842 
0.00424846 -0.0469219 0.1572 
0.0454231 -0.03917 0.2432 
0.0957134 0.0233276 0.2052 
0.0878229  0.054 0.193628 
0.0692502 0.0147882 0.144719 
-0.00250001 0.0548956 0.221712 
0.0283814 0.0368911 0.1607 
0.0375 -0.0571933 0.203806 
0.0185 -0.08239349999999999 0.215992 
0.0254559 -0.0259144 0.2492 
0.05702 -0.0438548 0.1502 
0.0110362 -0.0117029 0.2332 
0.0144295 0.0554999 0.184094 
0.0850819 0.00269843 0.168888 
-0.0184328 -0.0260708 0.246696 
-0.0156266 0.0615 0.192516 
0.00912258 0.0466874 0.20019 
0.00955581 0.00121781 0.2387 
0.0465347 0.0242363 0.1502 
0.0155584 0.054131 0.227389 
0.0101855 0.0281128 0.2492 
-0.00785132 -0.00682088 0.2492 
-0.008536800000000001 0.0278049 0.1502 
0.0959913 0.0375326 0.194496 
-0.0134318 -0.0548172 0.211436 
 0.041 0.0460845 0.154888 
0.0165 -0.077276 0.199422 
0.0633852 -0.0128042 0.14007 
0.00885615 0.00666427 0.2387 
-0.0160596 0.0615 0.173972 
0.047244  -0.05 0.189888 
 0.045 -0.00122296 0.155599 
0.0141045 -0.0825 0.233774 
0.0131882 0.0575 0.150347 
 0.062 -0.0335065 0.233393 
0.0276577 0.0324857 0.1607 
0.00216773 -0.0369543 0.2332 
0.0313078 0.0190709 0.1572 
 0.062 0.0553678 0.184516 
0.019514 0.054903 0.237941 
0.0217614 0.032001 0.1607 
0.0321367 0.0615 0.173972 
0.0449718 0.0192379 0.247734 
0.07585119999999999 0.0208107 0.133261 
0.0397254 -0.0568392 0.232622 
-0.0172606 -0.043 0.184153 
0.0143001 -0.0441418 0.2492 
0.0155672 -0.0351571 0.157698 
0.0966685 0.0285547 0.202237 
-0.00439652 -0.043 0.198577 
0.0233036 0.0323959 0.1582 
-0.0124576 -0.0597885 0.196401 
0.0235438 -0.0325837 0.2387 
-0.009983250000000001 0.0420069 0.2407 
0.06583260000000001 -0.0049181 0.24891 
0.0540012 -0.0508452 0.224827 
 0.062 -0.0340236 0.217421 
0.0216347 -0.0351144 0.158168 
-0.0256342 0.0515411 0.223957 
0.0538161 0.0225985 0.2407 
0.0165 0.0766828 0.22538 
0.0626881 0.029334 0.1812 
0.049756 -0.036114 0.2387 
0.0619868 -0.0615 0.187259 
0.00418711 0.0287447 0.2387 
-0.027 0.00291681 0.163599 
-0.00239007 -0.0619448 0.218003 
0.00325718 -0.0380796 0.1582 
-0.0213627 -0.02672 0.2387 
0.100483 0.0481696 0.184314 
-0.027 0.0412086 0.162892 
-0.00389537 -0.0224226 0.150201 
-0.027 0.028592 0.170452 
0.0268931 0.0223897 0.1607 
 0.048 0.061056 0.204835 
0.08737200000000001 -0.0203035 0.173382 
0.0275649 -0.028657 0.1607 
0.0539572 -0.00356461 0.2387 
-0.00757614 -0.0540312 0.240336 
0.104465 -0.0353457 0.179951 
0.0633058 0.00739274 0.140149 
0.031406 0.0517572 0.177881 
-0.027 -0.0511191 0.18036 
-0.027 0.0201571 0.167021 
0.00945524 0.0615 0.166594 
0.0445267 -0.0205398 0.187815 
0.0165 -0.0776362 0.196142 
0.0147728 0.0251125 0.238692 
0.0595973 -0.065 0.206827 
0.0387855 0.0535002 0.179392 
0.0591286 -0.017496 0.2387 
0.046564 -0.00616895 0.2387 
0.0362116 0.042762 0.2332 
0.0413061 -0.00129474 0.1632 
-0.00607039 0.0571251 0.231836 
-0.0242645 -0.0323292 0.1502 
-0.0243818 -0.065 0.2078 
0.06362719999999999 -0.035 0.152889 
0.0463263 0.0536068 0.166127 
0.068562 0.0134587 0.140828 
-0.0243678 -0.0499994 0.195645 
0.0270029 0.0181817 0.2387 
-0.0142172 -0.0330002 0.1502 
0.0110491 0.0486481 0.238725 
-0.013 -0.0587324 0.200134 
-0.027 0.0419286 0.174037 
0.0164881 0.0315657 0.2387 
0.0140888 0.000788773 0.1582 
0.0229138 0.000200975 0.2387 
0.0726784 -0.0178257 0.2052 
0.0131654 -0.0530001 0.240238 
-0.027 -0.0525256 0.240265 
0.09149210000000001 0.00128244 0.2052 
-0.0269894 0.0187902 0.157016 
0.0548656 0.0175 0.183071 
-0.0269749 -0.0345987 0.152302 
0.0301743 0.0352902 0.1607 
0.0583321  0.065 0.204793 
0.0960785 -0.048126 0.186455 
-0.027 0.050428 0.214191 
0.0557479 0.0117321 0.2387 
0.0627388  0.054 0.198803 
0.0820762 0.0283727 0.170209 
-0.0112456 0.00269698 0.2387 
0.0448668 -0.0486758 0.2432 
0.0261852 0.0186984 0.2387 
0.0265585 0.0347571 0.2387 
0.00539352 0.0536663 0.241023 
0.0859601 0.0126234 0.158197 
0.0647002 -0.043 0.187814 
0.0712884 -0.0237527 0.146757 
0.00600119 0.0556242 0.1502 
0.0592128 0.0631283 0.215339 
0.0183853 -0.043969 0.2432 
0.0331818 -0.0292173 0.1502 
0.0831721 0.0296211 0.172107 
-0.0188906 -0.0634709 0.212722 
0.0615906 0.00219044 0.2492 
0.0110267 0.0225212 0.1607 
0.0435191 -0.0609552 0.221313 
-0.000461847 0.0208249 0.187815 
-0.027 0.00990515 0.157447 
0.0633025 0.04395 0.1842 
0.0185 0.0795149 0.205356 
-0.023893 -0.00115088 0.2387 
-0.00251483 0.0188027 0.187569 
-0.0224602 -0.0547368 0.213736 
-0.000217968 -0.0429999 0.184885 
 0.062 0.0397993 0.239881 
0.0832794 -0.0163805 0.1842 
-0.027 0.0386146 0.225424 
0.0215548 -0.0139267 0.1607 
0.0128191 -0.0249132 0.1812 
-0.027 0.0308699 0.180117 
0.0913152 0.0222718 0.186943 
0.0202659 0.0411061 0.1632 
0.0467764 0.038512 0.2407 
0.0175538 0.0382999 0.1502 
-0.00318815 0.0379997 0.162946 
-0.00394197 0.00601302 0.2387 
0.0437876 -0.0289265 0.2387 
0.05672 0.0515295 0.1502 
0.0581463 0.011368 0.187815 
-0.0161393 -0.0323329 0.2387 
0.0271274  0.043 0.199919 
0.0330953 0.0506858 0.204374 
0.06343269999999999 0.0418391 0.2052 
-0.027 0.0350428 0.200814 
0.06890780000000001 0.0186187 0.14023 
-0.0262647 -0.008894229999999999 0.1502 
0.00474607 -0.0615 0.163979 
-0.0151887 -0.0172586 0.2492 
 0.062 -0.0604896 0.20778 
-0.0306657 -0.0116458 0.238701 
0.009210060000000001 -0.0366593 0.1842 
0.0625723 -0.0293269 0.1842 
0.105032 -0.0126078 0.183916 
0.009182559999999999 -0.0186762 0.1862 
-0.00436351 0.022468 0.1582 
0.0213597 -0.0457052 0.1842 
 0.045 -0.0122508 0.160974 
0.0571704 0.0429999 0.164643 
-0.0250651 0.0601421 0.223547 
0.0149152 -0.0407976 0.1502 
0.0519081 -0.0615954 0.209492 
0.0117506 0.0197056 0.2387 
0.0330719 0.0299323 0.233829 
0.09998120000000001 0.0266874 0.180343 
0.0138746 -0.054 0.216508 
-0.0157441 -0.0166463 0.237402 
0.07393810000000001 -0.0347638 0.149407 
-0.027 -0.0583844 0.154735 
0.0346747 0.0347452 0.1582 
0.0773554  0.035 0.156915 
0.0306186 0.0439969 0.2052 
0.0205559 0.0373058 0.2332 
0.0185 0.0767569 0.22063 
0.0314657 -0.00896724 0.2387 
-0.0132176 -0.0595931 0.225055 
0.0828411 -0.00582827 0.171534 
-0.0258435 -0.0538687 0.219014 
-0.027 0.0511878 0.170357 
-0.00996787 -0.0615 0.169054 
-0.027 0.0374686 0.171247 
0.0362013 0.0373511 0.1607 
0.020515 -0.0554999 0.169012 
0.072382 0.0321281 0.14785 
 0.014 -0.08370809999999999 0.180272 
 0.062 -0.0407525 0.159467 
0.0787931  0.035 0.157419 
-0.0208107 -0.0296098 0.1502 
0.00253502 -0.0486282 0.1502 
-0.019 -0.0136209 0.15542 
0.0227092 -0.0281506 0.2332 
0.0558382 0.0337559 0.147617 
0.0124423 0.0349006 0.2292 
0.0455129 0.0469393 0.1502 
-0.00172964 0.0453404 0.17914 
0.0952547 -0.035 0.188739 
-0.0128234 -0.0548789 0.181909 
0.03706 -0.0122666 0.2387 
0.0569678 -0.006787 0.248105 
0.0406606 -0.062195 0.197395 
-0.00713793 -0.0491691 0.226921 
0.0456463 0.0599682 0.1962 
-0.027 -0.0311146 0.237554 
-0.009998989999999999 0.0158858 0.2387 
-0.027 0.0298264 0.156803 
0.0165 0.0599424 0.232284 
0.009606409999999999 0.0332981 0.2432 
0.0609596 0.00392797 0.2492 
0.0898109 -0.035 0.178076 
0.000247698 0.0222968 0.1502 
-0.0111151 0.009794590000000001 0.199627 
0.030687 0.0491221 0.2387 
0.0235248 -0.0312499 0.1842 
0.0497886 -0.065 0.202102 
 0.062 -0.0523631 0.168737 
-0.00353444 0.00260812 0.1502 
2.78653e-05 -0.0467468 0.189105 
0.07478559999999999 -0.047 0.19012 
0.0119789 -0.0274958 0.1582 
0.0548013 0.0177153 0.1812 
-0.0135424 -0.021779 0.2387 
0.105034 0.0377592 0.183114 
0.0293592 0.0404053 0.2407 
0.00686326 0.0314194 0.2387 
0.0317208 -0.043 0.193218 
0.0279831 0.0260599 0.158197 
0.0261636 0.0227967 0.1572 
-0.00998279 0.0454777 0.24092 
-0.0269916 -0.014648 0.15296 
0.0185 0.0684787 0.21678 
 0.062 0.0574078 0.171089 
 0.062 -0.0268145 0.233974 
-0.027 -0.0179572 0.158459 
-0.0056591 0.008156429999999999 0.199745 
 0.062 0.0615641 0.199266 
0.0193649 0.0825 0.190739 
-0.0257125 0.0615 0.173098 
0.074836 0.0179973 0.134276 
0.0515769 0.00440956 0.2332 
0.0152913 -0.0382054 0.1842 
-0.0212143 -0.0633697 0.214679 
0.043012 0.0352576 0.1632 
0.0367208 0.014694 0.2387 
-0.0203636 -0.0243829 0.2387 
0.0116522  0.043 0.169581 
0.00318488 0.0530023 0.235389 
-0.0047527 -0.0615 0.168416 
-0.0232976 0.0249073 0.2387 
0.0153306 0.0615 0.155499 
0.09626369999999999 -0.0144861 0.186115 
0.095981 -0.011761 0.194378 
0.0689997  0.047 0.193712 
-0.0151751 -0.0106682 0.1502 
-0.0269954 -0.0247147 0.158937 
0.0572311 0.0600374 0.223835 
0.0703696 -0.0352918 0.2052 
0.0555271 0.0486939 0.2432 
-0.009871990000000001 -0.000980779 0.2387 
0.000589044 0.0615 0.159038 
0.0530587 -0.00307528 0.1502 
0.07498730000000001 -0.00239407 0.128468 
-0.00229188 -0.0568745 0.230358 
0.0103372 -0.00710722 0.1502 
0.06304460000000001 -0.00308868 0.14041 
-0.0210234 0.0615001 0.185147 
0.0157 -0.0663057 0.194514 
-0.009742779999999999 -0.0615 0.161046 
0.0159747 0.000187989 0.2492 
0.08601250000000001 -0.035 0.158804 
0.035904 -0.01881 0.1582 
0.0202052 -0.0285583 0.2332 
0.00684636 -0.0416098 0.242497 
-0.027 0.0413794 0.181977 
0.0284579 -0.0414435 0.2407 
-0.008130979999999999 -0.00587893 0.2332 
0.00581869 -0.0396965 0.2492 
0.0570015 -0.0163539 0.2387 
-0.0025 -0.0619524 0.200212 
0.0193 0.06426220000000001 0.201652 
0.0886094 0.00371336 0.2052 
0.0603698  0.033 0.240723 
0.015994 0.0441506 0.237927 
-0.0100019 0.0615 0.154323 
-0.0172541 -0.060771 0.20248 
-0.0120395 0.0429998 0.173996 
-0.0009877009999999999 0.0615 0.152867 
0.06563819999999999 0.00292269 0.2387 
-0.0263366 0.0108873 0.1632 
0.0157 -0.0737363 0.208002 
0.0155684 0.0553922 0.2372 
0.0207662 0.0374769 0.2387 
0.0364082 0.0165311 0.1582 
-0.0269894 -0.0353892 0.152975 
-0.0353778 0.0005236489999999999 0.2387 
0.0227378 0.00396175 0.1607 
0.0335745 0.0442486 0.2387 
-0.0147719 0.00690204 0.153198 
0.0863715 0.0506797 0.198195 
0.0921801 0.038795 0.196829 
-0.0195878 0.0645332 0.211483 
0.0711027  0.043 0.188533 
0.0336335 -0.00189605 0.187815 
-0.027 -0.0321761 0.224088 
-0.0232387 0.0549726  0.207 
0.0165 -0.0637535 0.1743 
0.0157 -0.0669286 0.174013 
-0.027 0.0508047 0.157517 
-0.027 -0.00670653 0.158672 
-0.00371501 0.0149078 0.1502 
0.0374172 0.0360864 0.2432 
0.0250896 0.00366474 0.150201 
 0.048 0.0557216 0.184281 
0.072107 0.0107194 0.137005 
-0.00641236 -0.0543756 0.216062 
0.0295272 0.0536184 0.169046 
-0.008887829999999999 0.0167297 0.2332 
-0.027 0.0267716 0.215465 
0.0565128 -0.0581763 0.205697 
0.0386532 0.0224127 0.1502 
0.0551203 -0.0510816 0.243008 
0.00359625 -0.0483108 0.204971 
0.0590279 -0.0312603 0.233201 
0.0277578 0.0535002 0.197952 
0.0899368 -0.0144057 0.177824 
0.00766866 -0.0299676 0.1502 
-0.00629812 -0.0131613 0.157732 
0.0250385 -0.056676 0.23307 
0.0291393 0.0453646 0.202793 
0.0727411 -0.0176636 0.130714 
0.0265912 0.00593684 0.1862 
0.0435054 -0.0182022 0.2332 
 0.045 0.0242108 0.158383 
0.0297092 0.0260711 0.186753 
-0.0258193 0.032614 0.1632 
-0.0113663 0.061638 0.219437 
-0.0139498 0.00713549 0.1582 
0.0435389 0.0197451 0.1502 
 0.045 0.0010816 0.157293 
0.0835906 0.0520872 0.205203 
0.0165 -0.0790453 0.164888 
0.0181235 -0.0767529 0.162111 
0.0849239 -0.047 0.1884 
0.0677487 0.0254391 0.149539 
0.0157 -0.0748342 0.210263 
0.0965955 -0.0310096 0.201402 
0.0377662 0.0164649 0.1502 
0.0524958 0.0120707 0.2387 
-0.0240767 -0.0305463 0.1502 
-0.0057479 0.0574571 0.230924 
-0.00176249 -0.0390313 0.1502 
-0.00379351 -0.0553102 0.197353 
0.09650069999999999 -0.0203517 0.200318 
0.0402052 0.0387368 0.1502 
0.0479006 -0.0551444 0.192139 
-0.009002939999999999 0.0615 0.183745 
 -0.02 0.014935 0.154778 
0.0204532 0.00322751 0.1572 
0.0363197 0.0116359 0.2387 
0.059744 0.0550371 0.237612 
0.0619047 0.0143307 0.186316 
0.08839470000000001 0.0160591 0.175153 
0.0454611 0.00213843 0.2332 
0.0276804 0.0101536 0.1502 
 0.039 -0.0285567 0.161748 
0.0193 0.061712 0.227205 
0.0160634 0.0215947 0.1607 
0.0186942 0.0017255 0.187815 
0.0238289 -0.0140158 0.194156 
0.0244347 0.0106179 0.187815 
0.0129911 0.0305626 0.1842 
0.0395388  0.065 0.206213 
-0.00584341 0.0504377 0.187909 
0.0244402 -0.0158307 0.186201 
0.00569089 -0.0608883 0.161201 
-0.0167246 0.0417894 0.231747 
-0.027 -0.0164538 0.161814 
0.0165 -0.06987939999999999 0.225552 
0.09138640000000001 -0.0383126 0.187757 
-0.00671304 0.0364535 0.242129 
0.0567361 -0.00126196 0.2492 
-0.0269504 -0.0579371 0.1502 
0.0250256 -0.03625 0.155822 
0.00301008 0.0480399 0.2332 
-0.0112523 0.0598642 0.22431 
0.0303626 -0.044078 0.1502 
0.07451140000000001  0.054 0.2051 
0.0328265 0.0227096 0.2387 
0.0398133 -0.065 0.205584 
0.0458501 -0.0615 0.167158 
-0.0142157 -0.0108379 0.1582 
0.0192405 0.0297141 0.2387 
-0.00585851 0.0535 0.169828 
0.0354935 -0.0535466 0.173645 
0.00236209 0.0440963 0.1502 
0.0185 0.0631859 0.173549 
0.0208862 -0.0346687 0.2332 
-0.00891174 -0.0535 0.181805 
0.0133755 -0.020086 0.2387 
-0.027 0.0553868 0.177539 
-0.00960426 0.00917925 0.2492 
-0.027 0.0456412 0.240363 
0.08368  0.047 0.190454 
0.0498781 0.0180353 0.1502 
0.00515749 -0.0342336 0.2387 
0.024613 0.0363069 0.157808 
0.0571899 -0.0606048 0.202623 
0.0132123 0.0499915 0.196949 
-0.027 0.0273962 0.159055 
0.0462076 -0.0557648 0.235574 
0.0526025 -0.0116291 0.187815 
0.00122356 0.031634 0.152873 
-0.027 0.0540512 0.239299 
-0.027 0.0583047 0.173867 
-0.0196763 -0.056073 0.215477 
0.0961461 -0.028822 0.196266 
-0.0082617 -0.0535 0.188335 
0.08345710000000001 -0.00969365 0.158362 
-0.00447165 -0.0194784 0.2387 
 0.062 -0.0456657 0.206646 
-0.0217667 -0.0615 0.156619 
0.00820214 0.00552313 0.2387 
-0.0193214  0.065 0.20981 
0.0467993 -0.0343017 0.1552 
0.00451476 0.0479993 0.1502 
-0.018012 -0.0514525 0.1572 
0.0626539 0.0322688 0.140801 
-0.027 0.0506653 0.176752 
0.0464766 0.0451111 0.2432 
0.0513982 -0.058728 0.223532 
-0.0268566 0.00834581 0.154011 
-0.0128007 0.0403951 0.1502 
0.00762064 0.0259297 0.1607 
0.0498239 -0.0587042 0.2062 
-0.027 -0.0195177 0.170074 
0.07823140000000001  0.043 0.192119 
0.0731733 0.0316088 0.148642 
0.0490999 0.00731905 0.186202 
-0.019 0.0132538 0.157684 
-0.027 -0.0569362 0.1575 
0.0847403 0.0139025 0.176121 
0.07991429999999999 0.00832975 0.155383 
-0.0253308 -0.06429749999999999 0.2062 
0.0322541 -0.0536245 0.165437 
-0.00646487 -0.0152432 0.2387 
0.0877424 -0.00671584 0.162326 
0.00130029 -0.0615 0.150401 
0.0450501 0.0535 0.20197 
-0.0118071 0.0482159 0.186053 
0.0243414 0.0150889 0.1572 
-0.0163184 0.0589749 0.209746 
0.0165 0.070173 0.205967 
0.00859998 0.0350263 0.1607 
-0.00482435 -0.00969567 0.2492 
0.0903182  0.035 0.182265 
0.0191665 0.0324031 0.2387 
0.0587522 -0.0593367 0.214077 
-0.010184 -0.0553493 0.196411 
 0.062 0.0368214 0.208132 
0.0383576 -0.0421186 0.1842 
0.0530138 0.0565322 0.209203 
0.0515365 -0.0440712 0.1502 
0.0173527 0.00542534 0.1502 
0.0842323 0.0231882 0.174225 
0.00958762 -0.0410215 0.2387 
-0.0257826 -0.0328659 0.2387 
0.025896 0.0129512 0.2387 
-0.00415601 -0.00764021 0.2387 
0.0199775 0.0825 0.213068 
0.0539098 0.0472892 0.22859 
0.0560322  0.043 0.15538 
0.0446799 0.0372237 0.1632 
0.089695 0.00102896 0.2052 
-0.00802365 -0.06267789999999999 0.21658 
0.0165 0.0699671 0.195377 
0.06286600000000001 -0.00403365 0.2492 
-0.0237927 0.00612602 0.2387 
0.09564930000000001 0.0404994 0.190587 
0.062183 0.00626762 0.141272 
0.0227175 0.0180159 0.2387 
-0.000869551 -0.0163015 0.2387 
0.0423084 -0.0615 0.183702 
0.10169 -0.008814239999999999 0.180194 
-0.0105411 -0.00341004 0.2332 
0.0509149 0.0196075 0.2387 
0.0512068 -0.0245206 0.233201 
0.0432638 0.00284131 0.187815 
0.0491394 0.0508571 0.2052 
0.00745217 -0.0439683 0.205326 
0.07952960000000001 0.0446667 0.1842 
0.00186926 -0.0173921 0.156694 
0.0816592 0.0348382 0.1694 
-0.027 0.0301965 0.150296 
0.07391590000000001  0.035 0.164317 
0.0468898 0.0206164 0.233219 
0.0320761 0.0276071 0.2387 
0.0137905 -0.0312493 0.2387 
0.0810028 -0.018776 0.156471 
-0.027 0.00590664 0.171386 
-0.00505486 -0.0549808 0.206821 
-0.00168465 -0.0468602 0.1572 
0.00845427 0.0220736 0.2387 
0.0544683 -0.0260215 0.233202 
-0.0234889 0.043707 0.237207 
0.0193805 -0.00716876 0.2332 
 0.041 -0.0556162 0.153531 
0.0505776 -0.0106259 0.1552 
0.0841534 0.0172935 0.17847 
-0.0139779 0.0433588 0.2432 
0.0570493 -0.0281732 0.233201 
0.00261073 0.0351521 0.2492 
0.0535743 0.0128191 0.2387 
0.095873 0.0440604 0.193144 
 0.062 0.0493344 0.152004 
0.0862917 0.0327539 0.15811 
-0.027 0.0601227 0.189896 
0.0388616 -0.0406115 0.1502 
0.0350112 0.0229882 0.183224 
0.00126712 -0.0290759 0.1502 
0.0165 0.0638599 0.218668 
0.0137768 0.0251943 0.2387 
0.00919203 -0.0312744 0.1842 
-0.0209436 0.0562023 0.22925 
0.101477 -0.0467246 0.184228 
-0.00299703 0.0121625 0.1862 
0.0197382 -0.0330765 0.1812 
0.0517751 -0.0440599 0.2432 
0.0260847 -0.03275 0.151319 
0.019222 0.00620657 0.151016 
0.0474093 -0.0615 0.186597 
0.0363955 -0.043 0.204572 
-0.027 0.0597795 0.188461 
0.0185 -0.0773316 0.172119 
0.0321677 -0.0515531 0.184122 
 0.062 -0.0602237 0.209342 
-0.0143263 -0.00559086 0.2332 
0.0103316 0.0196612 0.1502 
0.00292655 0.00581254 0.187815 
-0.0269758 0.009572000000000001 0.159354 
-0.0128417 -0.0411023 0.232025 
0.0156328 -0.0142586 0.1862 
0.0283802 -0.0251123 0.2387 
0.000115258 -0.0445087 0.2332 
-0.027 0.0371453 0.159828 
-0.0029776 0.0600135 0.2239 
0.0892196 0.00749447 0.176582 
0.0375 0.0473234 0.228793 
0.00177328 0.0222665 0.187491 
0.0160546 -0.0391827 0.2432 
0.000549312 -0.0263129 0.1582 
-0.027 0.0570211 0.150625 
0.043565  0.065 0.203731 
-0.027 -0.0534921 0.223353 
0.00575127 0.0464477 0.1572 
0.0877236 0.00349547 0.173991 
-0.027 -0.0127763 0.151017 
-0.0237409 -0.0499992 0.189942 
0.056853 0.0473344 0.228556 
-0.0184653 -0.0355889 0.233091 
0.0784898 -0.035 0.162934 
0.0506921 0.00462443 0.2387 
0.0921269 -0.00141674 0.180079 
0.045438 -0.0616495 0.219405 
0.0265097 0.0566463 0.1582 
0.0383302 -0.0413051 0.233202 
0.0955637 -0.008679920000000001 0.189609 
0.0638948 -0.013842 0.13956 
0.0157 -0.0672799 0.198384 
0.0535772 -0.0540196 0.240368 
-0.0191855 0.0450685 0.2432 
-0.0234588  0.065 0.201172 
0.0172675 -0.0235003 0.2387 
0.0297247 0.00581576 0.2387 
 0.062 0.0587926 0.159305 
0.0230774 -0.058295 0.228622 
0.0120757 -0.0381512 0.1812 
-0.0078344 0.0308722 0.2387 
0.0747345 -0.035 0.128926 
0.0318814 0.0453701 0.166402 
0.0318978 -0.00859878 0.2332 
0.0361131 -0.0191468 0.189686 
0.0598021 0.00156552 0.2387 
0.00396256 0.0157028 0.156928 
-0.00742625 -0.010812 0.186287 
0.0726878 0.0531028 0.1842 
0.00667991 0.0484439 0.203826 
0.005512 0.0549463 0.1502 
0.0600207 0.0401833 0.181199 
-0.0224557 -0.0615 0.169138 
0.0403246 -0.0453175 0.23938 
0.012635 0.0615 0.164547 
-0.027 0.0558999 0.22421 
0.0262228 0.0228902 0.1502 
0.06683459999999999 0.0210596 0.1812 
0.0715471 0.0385824 0.1842 
0.0568738 -0.0497659 0.194491 
 0.062 0.0388668 0.239907 
0.0185 -0.07553260000000001 0.170106 
0.0148407 0.00567849 0.2332 
0.104858 0.0149273 0.181107 
0.0185 0.0586576 0.223372 
0.000333058 -0.0589897 0.161202 
0.0913756  0.054 0.185029 
-0.027 0.0523078 0.201818 
0.0183541 0.00745252 0.152563 
-0.027 0.0147803 0.215901 
0.0519054 -0.0355538 0.1775 
-0.00222246 0.0452083 0.165833 
0.0533362 0.0170239 0.150119 
0.08149439999999999 0.0120888 0.2052 
-0.00535001 -0.00637541 0.2387 
0.065064 -0.0125976 0.15112 
0.0165 0.07266880000000001 0.185309 
0.0748096 -0.0139664 0.154521 
0.0879683 -0.0489304 0.197595 
-0.0189643 0.00634978 0.154381 
0.0465763 -0.00664925 0.2387 
-0.00689501 -0.0448137 0.2052 
0.0180647 0.0397917 0.2387 
-0.0210596 -0.0422531 0.1502 
0.0322748 -0.000180595 0.2387 
0.0542712 -0.0541126 0.217661 
-0.0216398 0.00323239 0.2387 
0.0415922 0.0330714 0.243857 
-0.0186216  0.033 0.242728 
0.0870683 0.0066799 0.157905 
0.014171 -0.0575 0.154988 
0.0721033 -0.0229686 0.131352 
0.042875 0.0458052 0.229695 
0.06301329999999999 -0.0212801 0.1812 
 0.045 -0.00963546 0.158318 
0.0319632 0.049494 0.1572 
0.0334223 -0.0245854 0.186206 
0.00497995 0.00314213 0.1502 
0.00769029 0.0120785 0.1582 
0.0260836 -0.0536193 0.156438 
0.00676034 -0.0584987 0.155863 
0.0769254 0.00942289 0.132186 
-0.0362101 0.00580673 0.23951 
0.00147442 -0.0535488 0.178195 
0.0377343 -0.0400997 0.1502 
-0.0269978 -0.0041584 0.159433 
0.0169968 -0.0231304 0.1812 
0.0375 -0.0555878 0.222136 
0.0493132 -0.00408589 0.2387 
0.0354221 0.0254111 0.184154 
0.00716964 -0.0237262 0.1582 
0.0524997 0.0357393 0.240856 
0.0767264 -0.0515728 0.2052 
0.0804153 -0.0298597 0.155884 
-0.00232249 0.00296281 0.2332 
-0.0269836 0.00682539 0.154542 
-0.00238726 -0.0163795 0.2332 
0.0435124 -0.0313504 0.243525 
0.0279096 -0.00193078 0.196315 
0.0528362 -0.0138934 0.1552 
0.0948426 0.0535612 0.192478 
0.0585974 0.0609808 0.217295 
0.0403786 -0.013663 0.2332 
0.0105485 -0.0575 0.150462 
0.0313247 -0.0488002 0.239422 
0.0777704 0.030496 0.153239 
0.07802489999999999 -0.0157914 0.130866 
-0.0115374 -0.00687528 0.2332 
0.0165 0.0673451 0.166303 
0.0397009 0.0597785 0.224546 
0.0695949 -0.0337903 0.2052 
0.0462425 0.0628486 0.216111 
-0.027 -0.0327069 0.201618 
0.0753114 -0.0231847 0.2052 
-0.027 0.0452897 0.200619 
0.08610429999999999 0.026642 0.171186 
-0.0166085 -0.0280156 0.1582 
0.0151244 -0.0499857 0.192438 
0.0814961 0.000445529 0.181554 
 0.062 0.0408306 0.22711 
-0.027 -0.0301131 0.221134 
 0.062 0.0467973 0.153706 
-0.0100455 0.0587774 0.227296 
0.0405036 -0.0187054 0.233344 
-0.021404 -0.0313645 0.2332 
0.020031 0.0353606 0.2387 
-0.019795 0.0435681 0.2432 
0.0209977 0.018379 0.2492 
0.0165 -0.06324829999999999 0.231678 
0.0874085 0.017803 0.173445 
-0.00689852 -0.0304004 0.1607 
-0.00368362 -0.0518168 0.184389 
0.0672314 0.0438443 0.2052 
-0.0240732 0.0469939 0.2432 
-0.0253697 -0.0588066 0.227216 
0.0352351 -0.030193 0.1607 
0.0229862 0.0578813 0.1502 
0.00258678 -0.0356013 0.2432 
0.0556068 0.0620851 0.200966 
-0.0126046 -0.0615 0.179472 
0.0174286 -0.0204412 0.150202 
-0.0214671 0.0554725 0.236376 
0.0165 -0.0737154 0.213015 
0.0460449 -0.0535724 0.165314 
-0.027 0.0241228 0.154932 
0.0439324 0.0122234 0.1502 
0.0495951 0.0357016 0.2387 
-0.0228234 0.0617929 0.209252 
-0.027 -0.0603736 0.184516 
0.0399316 -0.0636973 0.198897 
-0.00163496 -0.0482144 0.150348 
0.0933862  0.035 0.18312 
0.0165 -0.07060719999999999 0.199819 
0.0569501 -0.0226608 0.146505 
0.0319115  0.043 0.202105 
0.0117253 -0.0585 0.155008 
0.0175814  0.054 0.207219 
0.08870119999999999 -0.025547 0.161183 
0.0502976 -0.0615004 0.178628 
-0.0238204  0.043 0.16736 
0.00617733 0.0134004 0.2332 
-0.0187339 0.0464512 0.2432 
0.0884083 -0.0233995 0.175177 
 0.062 -0.0359957 0.237839 
0.0192478 -0.0302058 0.1502 
-0.0235886 -0.06392929999999999 0.21314 
0.0277476 -0.043 0.17826 
-0.00123805 0.0281184 0.1607 
0.00357783 0.0173258 0.158199 
0.0116287 0.0277966 0.1502 
0.009404010000000001 0.0205698 0.2492 
0.0059888 0.0101215 0.2332 
0.0484985 0.0150495 0.2492 
0.0211052 0.0382011 0.1842 
0.0136778 0.0404335 0.1632 
0.0165 -0.0772142 0.186782 
0.0118936 0.0373789 0.2332 
-0.008178639999999999 0.0157371 0.2387 
0.06257740000000001 0.00774413 0.140877 
0.0323777 -0.0109117 0.233204 
0.0201859 -0.0224763 0.2332 
-0.027 -0.00387824 0.181848 
0.0198914 -0.0185191 0.2492 
0.0231096 0.0168277 0.1502 
-0.027 0.0237312 0.180575 
-0.0109658 -0.065 0.209382 
0.0204159 -0.0297279 0.156449 
0.0551152 0.0575695 0.20566 
0.0234136 -0.0415466 0.244332 
0.00162903 0.00750591 0.2332 
-0.027 0.017525 0.201057 
-0.027 -0.0566466 0.160091 
-0.027 0.0346592 0.167337 
-0.0269776 0.0274519 0.159359 
0.00820045 0.0305559 0.2387 
-0.0267821 0.0101622 0.153012 
0.0122277 0.00547372 0.238699 
0.0130759 0.0420502 0.1582 
0.058263 0.06377190000000001 0.213574 
0.0351765 0.009089720000000001 0.1862 
0.048628 -0.0219588 0.1552 
0.0960462 -0.0337277 0.195123 
0.0541096 -0.043 0.159625 
-0.00250005 0.0585755 0.224414 
-0.027 0.0392087 0.230098 
0.0320164 -0.0324699 0.2492 
0.0103028 0.0478544 0.1502 
  0.04 0.0378021 0.154235 
-0.027 -0.0361721 0.189958 
0.0153214 0.035666 0.2387 
-0.0245155 0.0493768 0.2432 
0.0242543 0.0153976 0.2387 
0.0223143 0.0557078 0.23573 
0.0165 0.079093 0.212052 
-0.0217339 -0.0597662 0.204756 
0.015182 0.0024335 0.1582 
0.0584336 -0.065 0.209873 
0.0130447 -0.0538107 0.174919 
0.0785759 -0.0173834 0.154044 
0.0269785 0.00272651 0.187074 
0.00474241 0.0216789 0.186453 
0.0518984 0.0429944 0.178432 
0.0521088  0.065 0.200994 
-0.027 -0.0107818 0.161766 
 0.041 0.0511433 0.156686 
0.0262688 0.0389122 0.2387 
0.0320496 0.0332512 0.1582 
0.0510716 0.0615 0.165927 
0.047291 -0.0393567 0.2387 
0.0426291 0.0153937 0.2387 
 0.041 -0.0304485 0.152118 
0.0741043 -0.035 0.134758 
0.00733138 0.0229188 0.1582 
-0.00421374 -0.0111132 0.2492 
0.08428049999999999 -0.047 0.182679 
-0.027 -0.0586545 0.188216 
0.0203461 -0.0825 0.228657 
0.07705190000000001 -0.00131446 0.15252 
0.0268275 -0.0564152 0.1582 
0.0358769 0.0370066 0.24447 
0.0570604 0.0569751 0.231519 
0.0600229 -0.065 0.209695 
-0.0217703 0.0634614 0.213522 
0.0150591 -0.0162488 0.2332 
0.0165 -0.074575 0.225225 
 0.048 0.0572927 0.185916 
0.0337156 -0.0339735 0.2432 
-0.0127895 0.0189906 0.150208 
-0.00224416 0.00956603 0.2387 
 0.062 -0.0525552 0.243144 
0.0274065 -0.0589183 0.226909 
0.0413089 -0.0615 0.150263 
0.0307201 0.0407959 0.2332 
0.031754 -0.0320188 0.247699 
-0.00279094 0.0615 0.154597 
-0.0166226 -0.00490436 0.2492 
-0.0025 0.0603547 0.1989 
 0.048 0.056642 0.190571 
0.0384701 -0.0216232 0.186206 
-0.0237465 -0.0228738 0.1502 
-0.027 0.0303615 0.200345 
0.0600938 0.035433 0.233111 
 0.062 -0.0241222 0.215652 
0.0955593 -0.0100524 0.188374 
0.0531288 -0.0599448 0.200057 
0.0160485 -0.0555 0.217668 
0.0450978 -0.0169354 0.247901 
0.0420523 -0.0644599 0.211684 
-0.00410275 -0.0130032 0.187817 
0.0568906 0.0434276 0.1502 
-0.000899111 0.0221219 0.1582 
0.0266604 0.0134649 0.1572 
0.0692487 -0.0116913 0.144717 
-0.027 -0.0267805 0.154704 
0.0546244 0.0337058 0.14883 
0.0154912 0.0286513 0.1502 
0.009444360000000001 -0.0536423 0.182813 
-0.0123943 0.0541623 0.169148 
0.0608774 -0.00181417 0.2387 
0.0811239 0.0230242 0.160835 
0.0257544 0.0395138 0.2332 
-0.000333477 -0.0198308 0.153142 
0.0336156 -0.00209977 0.2492 
0.0682224  0.035 0.144638 
-0.0205189 0.0615003 0.192346 
0.0346013 -0.040383 0.2387 
0.007952509999999999 0.0118113 0.1862 
-0.027 0.0423809 0.158299 
0.0605638 0.0511351 0.1502 
0.0402231 -0.00255924 0.2387 
0.0165 -0.0686479 0.17831 
0.0914526 0.008461089999999999 0.188513 
0.0586602 0.0135188 0.144795 
0.0551143 0.0625974 0.202371 
0.0345629 0.0422982 0.1502 
0.0135681 -0.0542996 0.202578 
0.08818040000000001 -0.043 0.202494 
0.0196183 0.08400000000000001 0.23233 
0.0338244 0.0478446 0.171065 
0.0168567 0.0404593 0.1582 
-0.00463601 -0.0314234 0.2387 
-0.00467805 -0.0428116 0.1582 
0.0143342 -0.0148887 0.1582 
-0.0219802 0.0399832 0.1632 
0.0237925 0.0205272 0.1582 
-0.029529 0.00500478 0.248265 
-0.0180663 -0.0481715 0.1842 
0.0579161 0.0423077 0.1502 
0.0188067 -0.08400000000000001 0.193947 
7.65465e-05 -0.0469194 0.18589 
0.0086823 0.0533806 0.241486 
0.09162099999999999 0.0255299 0.190438 
-0.0198507 0.0419884 0.2432 
 0.062 -0.030351 0.234137 
0.013465 -0.0227304 0.158199 
-0.027 -0.0131858 0.238681 
0.0435295 -0.0256509 0.2387 
 0.062 0.0481855 0.182323 
0.0313028 -0.0271377 0.2387 
0.0232616 0.06349050000000001 0.198691 
0.0947761 0.0481168 0.1842 
0.08606610000000001 0.00123525 0.164323 
-0.027 -0.0567637 0.194084 
0.00739381 0.0230399 0.1607 
0.00684143 0.0350179 0.238697 
-0.00250001 0.0452516 0.230798 
 0.062 0.046006 0.224968 
0.0171934 -0.08400000000000001 0.19999 
0.0731641 -0.0263149 0.130291 
0.026625 -0.0177998 0.2387 
0.0215253 -0.0452988 0.2407 
0.05542 0.06435399999999999 0.2062 
0.0211301 -0.0550162 0.227759 
0.0238289 -0.008962390000000001 0.190802 
0.041634 -0.0253683 0.186208 
-0.00320782 -0.0615 0.171644 
0.00759094 0.0566627 0.233106 
0.0274004 -0.0615 0.183679 
0.0611724 0.0615 0.189441 
0.0185 0.0616472 0.177661 
0.0185 -0.055879 0.233211 
-0.0178746 0.00949433 0.1582 
-0.00118365 0.0275903 0.1582 
0.0889023 0.000452936 0.176032 
0.0296902 -0.0639208 0.213165 
0.0182798 -0.08400000000000001 0.218269 
0.0492034 -0.007978620000000001 0.2387 
0.0962971 0.0262679 0.186054 
-0.00634673 -0.0140117 0.187815 
0.0185 -0.0733521 0.217191 
0.0355535 0.0430403 0.2387 
0.0870543 0.0105672 0.172831 
0.0734437 0.0276906 0.153177 
-0.025102 -0.060049 0.223803 
0.0109407 0.0206854 0.2387 
0.0679133 -0.00333321 0.2052 
0.0551875 0.0492967 0.1842 
0.0144691 0.00754694 0.2492 
0.058213 0.0619444 0.209042 
0.0427658 0.000216849 0.1632 
0.0866025 0.0136184 0.172049 
0.0605323 -0.033 0.240806 
0.0278267 0.0261337 0.2387 
0.0317516 -0.0126441 0.1862 
-0.0269919 0.0239104 0.158027 
0.0525559 0.0541364 0.217517 
0.040301 -0.029349 0.1502 
-0.027 0.0476346 0.158569 
0.07040540000000001  0.035 0.154111 
0.0622283 -0.01999 0.1812 
0.0429603 -0.0615 0.152005 
-0.0186376 0.0509665 0.1572 
 0.062 -0.0455803 0.178136 
-0.009333640000000001 0.0113191 0.2387 
0.069269 0.0288271 0.144738 
0.0778619 -0.0247503 0.15333 
0.0487947 0.0615 0.181991 
0.0756945 0.0374576 0.2052 
0.0483578 0.0610929 0.220935 
0.000811608 0.0344298 0.2432 
0.00458929 -0.0294221 0.1582 
0.0777212 -0.0287934 0.15319 
0.0141571 0.0403519 0.2387 
0.00116301 0.0208111 0.2387 
0.0482238 0.020232 0.1552 
-0.0208012 0.0577185 0.200723 
0.0203625 0.0309517 0.2332 
 0.048 -0.0603751 0.166841 
-0.0002545 -0.0505354 0.173453 
0.0621525 0.0212289 0.141302 
0.08489049999999999 0.0180393 0.167812 
0.000795795 -0.008374080000000001 0.192478 
0.0233986 -0.0603833 0.222884 
0.0185391 0.07199999999999999 0.200547 
-0.0219046 0.028735 0.1502 
-0.0105293 0.0164366 0.1502 
0.0151332 -0.0595103 0.155523 
0.0462326 -0.0257286 0.184578 
0.0185 0.06253789999999999 0.192734 
-0.010476  0.043 0.163474 
-0.0134669 -0.0172561 0.2387 
0.0298635 -0.0547696 0.1582 
0.0444417 0.0615 0.177826 
 0.062 0.0554878 0.24371 
0.00184628 0.008304819999999999 0.199745 
0.009910830000000001 -0.043 0.173939 
-0.027 -0.0246188 0.161698 
-0.0170214 -0.0223607 0.2387 
  0.04 -0.009559639999999999 0.153821 
-0.00988407 -0.0522532 0.1572 
0.0610781 0.00453004 0.2332 
0.0483843 -0.0164745 0.1502 
0.0296007 -0.0503405 0.1572 
0.0473103 0.0540736 0.172974 
0.0233834 0.03625 0.156173 
-0.0207332 -0.023532 0.1502 
0.0405984 0.0332098 0.2492 
-0.00835548 -0.0318164 0.1582 
0.0102324 -0.0291142 0.1582 
0.0219871 0.0160249 0.2387 
 0.062 -0.0374734 0.154778 
0.0818328 -0.0186791 0.180645 
0.0429972 0.0123411 0.2387 
0.0975086 -0.0364546 0.180559 
0.0422805 0.0167518 0.2387 
-0.0211577 -0.0562571 0.222275 
0.0327514 0.0575 0.152583 
0.00500279 0.0485124 0.204178 
-0.027 -0.0306151 0.158729 
0.000191651 0.0430109 0.1502 
0.0434648 -0.0615 0.156187 
0.0200833 0.0280012 0.2332 
-0.0296626 5.07847e-05 0.240966 
-0.0115704 0.0542583 0.166358 
0.000332187 0.0312648 0.2492 
0.0764519 0.0308769 0.129293 
-0.027 0.0516197 0.171378 
0.0505415 0.0165 0.2387 
-0.0269858 0.0129581 0.156796 
-0.0185782 0.0615001 0.180564 
0.0130128 -0.0200091 0.2387 
 -0.02 -0.0329762 0.151649 
0.0183008 -0.065 0.203025 
0.0364975 -0.0589045 0.226947 
0.01053 0.0169355 0.151728 
0.0231132 0.00267768 0.1502 
0.104867 -0.0386789 0.181211 
0.000589983 -0.0435225 0.2387 
-0.0204853  0.043 0.176835 
0.0342236 0.0442531 0.2052 
0.0462143 -0.000940586 0.2387 
 0.062 -0.0484529 0.165396 
0.0204665 -0.033 0.242661 
0.0185 -0.0737717 0.224451 
0.0830854 -0.00500701 0.2052 
0.00609022 -0.065  0.205 
0.0898072 -0.0430673 0.2052 
0.0211729 0.0550712 0.163774 
 0.062 0.0388965 0.242659 
 0.014 0.0830736 0.22986 
0.0444249 -0.0383251 0.1632 
0.0193 0.0574299 0.224694 
0.0563302 -0.0615 0.191798 
0.0105863 -0.0109744 0.2387 
0.0135118 -0.0326411 0.1607 
0.00410731 0.0107586 0.199745 
0.0239171 0.0166471 0.2387 
0.0481419 -0.0128993 0.2492 
-0.0188178 0.0299474 0.1502 
0.0617085 -0.0495594 0.246858 
-0.027 -0.0134951 0.216344 
-0.000172494 0.0465447 0.180622 
0.0224467 -0.0464091 0.201548 
0.0393084 0.0405785 0.1812 
0.0172531 0.00170023 0.2332 
0.00712603 0.00334555 0.1502 
0.0299292  0.043 0.186253 
-0.027 -0.00432892 0.22306 
0.039179 -0.0615 0.190548 
-0.027 0.0334595 0.166632 
0.0807623 -0.0151292 0.180932 
 0.062 -0.0199617 0.23063 
0.0799473 0.0246259 0.155416 
-0.0137573 0.0124008 0.1502 
-0.0227164 0.0513562 0.242959 
 0.062 0.0407189 0.242175 
-0.0146769 0.0121286 0.2387 
0.0483418 0.0602326 0.1502 
0.0607044 -0.035 0.146287 
0.0412237 -0.065 0.208249 
0.0165 -0.07872369999999999 0.187822 
-0.0267659 0.0165065 0.2387 
0.03911 -0.000454394 0.15609 
 0.014 0.0826684 0.17411 
0.0492231 0.0295578 0.2407 
0.0732491 -0.0254457 0.135863 
0.0185 -0.0755039 0.213312 
0.0329135 0.0414546 0.2387 
0.0829791 -0.0268913 0.2052 
0.00703105 0.0425608 0.1582 
-0.0140236 0.00184091 0.153198 
0.0567341 0.00149949 0.187815 
0.0436825 0.0236901 0.2332 
-0.016598 -0.0615 0.186921 
0.013831 -0.0585 0.152385 
0.0364119 -0.0515834 0.242974 
0.00333894 -0.0398582 0.1632 
0.0101743 -0.0339645 0.1502 
-0.0259271 -0.0479218 0.228119 
0.062052 -0.054 0.197224 
0.0543219 0.0452139 0.1842 
0.0968604 -0.0171059 0.204429 
 0.057 0.0512614 0.245383 
-0.0258834 -0.0329391 0.1502 
0.0403423 -0.0084092 0.1582 
-0.0251971 -0.043 0.16855 
0.06346209999999999 -0.0263255 0.139993 
0.0185 -0.0569365 0.178752 
0.0920776 0.0148939 0.195657 
-0.00387167 0.0615 0.157977 
0.0519058 0.0360384 0.178942 
0.010476 0.0215217 0.1842 
0.0365157 -0.0131222 0.2387 
 0.062 -0.0561292 0.227634 
0.0469069  0.043 0.157461 
0.09686930000000001 -0.0217864 0.185512 
-0.027 0.028736 0.23142 
-0.027 -0.00724043 0.209126 
-0.027 0.00988118 0.153436 
0.0215409 -0.0396812 0.1502 
-0.0119164 0.0612873 0.1502 
0.00140601 0.033622 0.1582 
0.0436609  0.033 0.240361 
-0.0269993 0.0335626 0.159253 
0.0263547 -0.0424051 0.181042 
0.0290146 0.0419592 0.2432 
0.0507563 -0.0227188 0.24786 
0.0129506 -0.0183428 0.158259 
-0.0105078 0.0355763 0.233093 
0.08313139999999999 -0.0143596 0.17966 
0.0233696 0.0195153 0.1582 
0.0367502 0.0391837 0.1812 
-0.0196852 -0.0431075 0.1582 
0.0915238 0.018059 0.189327 
 0.062 -0.0519612 0.161689 
0.0490132 0.0195171 0.2332 
-0.0242074 -0.0134555 0.2332 
0.0664527 -0.0238715 0.2052 
0.010052 -0.0294963 0.1842 
 0.062 -0.0311047 0.214157 
0.0165 -0.0678916 0.224458 
0.0122521 -0.0538082 0.167526 
0.0273731 0.0435255 0.2432 
-0.0174534 -0.0570749 0.217845 
0.0522733 0.0500771 0.2432 
-0.0269806 0.0137951 0.156342 
 0.062 0.0593176 0.168983 
-0.0130421 -0.0242659 0.1607 
0.0541588 -0.0429999 0.163722 
-0.000356973 -0.0615 0.16075 
0.06555130000000001 -0.043 0.193683 
-0.0269691 -0.0233404 0.155346 
0.0906966 0.0173096 0.158641 
0.00750428 -0.029602 0.1502 
0.0181538 -0.0610763 0.150924 
0.008599880000000001 -0.0405046 0.2492 
0.0029058 -0.0175014 0.182577 
0.09572219999999999 0.0152181 0.18745 
0.00985219 -0.0562969 0.234112 
-0.0184398 -0.012839 0.160903 
0.0807705 -0.035 0.156621 
-0.00508208 -0.045801 0.175156 
0.0231495 -0.00191251 0.1572 
0.0519082 -0.0327529 0.180352 
-0.000534367 0.0615 0.168877 
-0.0131591 -0.0465836 0.1842 
0.0490962  0.043 0.163562 
-0.027 0.0240236 0.162944 
0.0311935 0.0264325 0.1502 
0.0182673 0.0448221 0.2492 
-0.027 0.0523763 0.188246 
0.0205317 0.0825 0.235204 
0.0670596  0.043 0.201219 
-0.00463303 -0.06156 0.219651 
0.051049 0.0511053 0.224502 
0.0747385 0.0159 0.150207 
0.00250921 -0.0116598 0.1862 
0.080138 0.0520189 0.1842 
-0.018651 -0.00743334 0.2492 
-0.02093 0.00873956 0.2332 
0.0198836 0.0315613 0.1842 
0.0183162 -0.0373702 0.237719 
0.06912459999999999 -0.0372136 0.1842 
-0.0302011 0.00101701 0.2332 
-0.0173135 -0.0191993 0.1502 
-0.0236164 0.0541131 0.240111 
-0.027 0.0512898 0.220447 
0.049393  -0.05 0.194759 
0.0148258 -0.0159502 0.158199 
0.0491022 0.0440709 0.230826 
-0.0130753 -0.0402588 0.1502 
0.0318646 0.0388315 0.248008 
0.0162432 -0.00383735 0.1862 
0.07180540000000001 -0.0517068 0.1842 
0.0274784 0.0467405 0.191935 
0.0112052 0.0547723 0.238301 
0.0018221 -0.0342402 0.2387 
0.0541886 0.0382493 0.181193 
0.0781061 -0.0103384 0.153575 
0.020454 0.08400000000000001 0.181212 
-0.032455 0.00496537 0.248416 
0.0481516 -0.00258616 0.1502 
0.0998646 0.00461004 0.184369 
0.049933 -0.0202626 0.2387 
0.0373887 0.0538529 0.2332 
0.0302446 -0.0615753 0.219609 
0.05191 -0.039597 0.180657 
-0.027 0.0606977 0.178225 
0.0310721 0.0476602 0.152023 
0.0185 0.0615671 0.221896 
-0.0189807 0.00538244 0.153351 
-0.0172172 0.0140664 0.158474 
-0.0189904 0.053591 0.219637 
0.0303428 0.020048 0.2492 
0.0152359 0.0825 0.193716 
0.0606246 0.0126579 0.2407 
0.0121103 -0.054701 0.161995 
-0.00510436 0.0146848 0.187815 
-0.027 0.0446179 0.17574 
-0.027 0.0264052 0.229213 
0.0965274 0.0507922 0.200623 
