3
0.0401971 -0.0565435 0.233434 
0.00874956 -0.00260994 0.2387 
0.0968122 -0.000897016 0.203879 
0.0068198 -0.0214686 0.2387 
-0.00394536 0.0559111 0.1582 
0.0300289 -0.00209267 0.190753 
0.00647467 0.0497013 0.1572 
0.0165 0.0572235 0.230747 
-0.0175493 -0.00559563 0.15668 
0.0725049 -0.0110958 0.147973 
0.0435057 0.0499994 0.200478 
0.0513634 0.02739 0.2387 
-0.0112301 -0.0548217 0.211308 
0.0957862 -0.0191065 0.18071 
0.0641227 -0.0300437 0.1552 
0.04619 -0.00119164 0.2332 
0.0606455 -0.0617867 0.219033 
0.00430849 -0.011103 0.2387 
0.0855694 -0.0345308 0.170259 
0.0104293 -0.0489861 0.198134 
0.0618375 -0.0480791 0.2052 
0.0486664 -0.0169824 0.2387 
0.0481784 -0.024131 0.186209 
0.0848589 0.0332638 0.168215 
0.0694008 0.00638688 0.134054 
0.0401071 0.0104659 0.1632 
-0.027 0.0224425 0.152656 
 0.041 -0.0564543 0.155335 
-0.0248124 0.0546097 0.2062 
0.0357484 -0.0288511 0.238437 
0.0165 -0.0750301 0.183399 
0.0111243 0.0533808 0.241486 
0.0412915 -0.0220054 0.187815 
0.079764 -0.0153252 0.1842 
0.0485366 0.061502 0.194429 
0.0545186 -0.0615 0.160016 
0.0106778 -0.0119407 0.1582 
-0.0158537 -0.0161522 0.239917 
-0.0234666 0.0380003 0.2432 
-0.0197914 0.0131425 0.2332 
0.0956509 -0.0318424 0.190605 
0.017296 -0.021818 0.2492 
0.0907477 -0.0143919 0.158744 
0.0185 -0.0748312 0.217985 
0.012319 0.0615 0.163272 
0.0490038   0.05 0.204071 
-0.0315746 0.00357421 0.2387 
-0.019 0.0228081 0.152778 
0.021233 -0.0488258 0.2432 
0.0165 0.0753597 0.172315 
-0.026994 0.0301815 0.160358 
-0.0168884 0.0341159 0.2387 
-0.00139913 0.00386799 0.187815 
0.07709149999999999 -0.0261008 0.1812 
0.095882 -0.0216131 0.180702 
-0.027 0.0153067 0.157238 
0.00677391 0.0239063 0.1812 
0.0699332 0.00455991 0.145402 
0.0386842 -0.00636649 0.1502 
0.0143063 0.0286499 0.1502 
-0.0224682 0.0605166 0.203474 
0.0497561   0.05 0.196273 
0.000160227 0.0188464 0.182638 
0.0493643 -0.0420501 0.1502 
0.06563430000000001 0.0340695 0.137821 
0.0409791 0.0425773 0.2432 
0.0440039 0.000517616 0.2332 
0.0560174 -0.0233555 0.2387 
0.0892102 0.00245538 0.157394 
-0.0226425 0.0112336 0.1502 
0.09453930000000001 0.011539 0.180736 
0.09564159999999999 -0.00089211 0.187383 
0.053493 -0.0127338 0.2332 
0.0962503 0.0457157 0.197457 
0.0584461 0.0270006 0.2387 
0.0242544 -0.0428452 0.1502 
-0.011285 0.0609025 0.221458 
-0.0118248 0.0329102 0.246441 
-0.00137726 -0.0128014 0.1862 
0.0542839 -0.0561727 0.212656 
0.0958944 0.00283866 0.193389 
0.00682201 0.00583769 0.2332 
-0.0269802 0.0124182 0.1565 
0.079829 -0.008532049999999999 0.165585 
0.028478 0.0372557 0.1502 
0.0441587 -0.033 0.241391 
-0.0188389 0.0233466 0.2387 
 0.062 -0.00117813 0.224548 
0.0178164 0.0169648 0.1582 
0.0614535 0.0472744 0.1502 
0.0544123 0.0100299 0.2492 
0.0165 0.0636873 0.210288 
-0.0111854 0.0566825 0.233052 
0.0966586 -0.0435018 0.2052 
0.0165 -0.0822961 0.204361 
0.0426225 0.0337928 0.2407 
0.0210985 -0.0190203 0.1607 
0.0557252 0.0143869 0.2407 
0.08487409999999999 -0.00232387 0.168261 
 -0.02 0.0263434 0.155708 
0.0185 0.06685199999999999 0.23106 
0.0130424 0.0295335 0.1502 
0.0165 0.0815217 0.210139 
-0.00769825 -0.0234545 0.150201 
-0.0153692 0.00301524 0.2387 
-0.0121787 -0.044575 0.1842 
0.0259943 0.0239312 0.2492 
-0.013075 -0.0601933 0.223406 
0.0336505 0.0572272 0.161201 
0.0206342 0.0181231 0.1862 
0.0435383 0.0599963 0.161216 
0.0200112 0.0193903 0.187815 
0.0307883  0.043 0.203151 
0.0288165 -0.043 0.199124 
0.0165 -0.0615718 0.171132 
-0.027 -0.0533527 0.152082 
0.0543032 -0.0152398 0.2492 
 0.062 -0.0316256 0.235898 
0.0154504 0.034807 0.1502 
-0.027 -0.046736 0.161777 
-0.027 -0.0357874 0.19755 
0.00292655 0.0448819 0.2387 
0.085664 0.0252166 0.170423 
0.0354898 0.0598799 0.224267 
0.0744377 -0.0227716 0.2052 
0.0481213 -0.0226143 0.2332 
0.0525692 -0.0228107 0.187147 
-0.00320287 -0.0289496 0.2387 
0.0232242 0.0181004 0.2387 
0.0962587 -0.00976176 0.197552 
-0.00922392 -0.0228373 0.2387 
0.0224824 0.0446515 0.203912 
0.09252920000000001 0.0185986 0.180289 
0.0375 -0.0610555 0.213667 
0.0685904 0.0223183 0.140779 
 0.048 -0.0566665 0.168468 
0.0212566 -0.0254619 0.1502 
0.0432945 -0.0621441 0.218047 
0.00689177 0.0145035 0.2332 
0.104491 0.0427375 0.179949 
 0.041 0.0352499 0.150691 
0.00398418 0.048467 0.2387 
-0.00678655 0.0575 0.157763 
-0.027 -0.0131951 0.18595 
-0.027 0.0368643 0.209244 
0.0604896 -0.0547567 0.213168 
0.0189422 0.0266501 0.1502 
0.0165 0.0824198 0.165642 
0.0311812  0.043 0.190238 
0.0348094 -0.0215602 0.182621 
0.0345794 -0.008241780000000001 0.1502 
0.095378 0.0234281 0.180746 
0.0409716 0.0510318 0.2052 
-0.027 -0.041389 0.153686 
0.0455825 0.0626155 0.216751 
0.000842904 -0.0132944 0.194594 
0.0588907 -0.00333657 0.238628 
-0.027 0.0321638 0.159982 
-0.009566959999999999 0.0176679 0.238699 
-0.0134877 0.0615005 0.187286 
-0.00866421 0.035101 0.244702 
-0.0216479 0.0257779 0.1502 
0.0139488 -0.0587811 0.227286 
-0.027 0.0138892 0.18949 
0.0571967 -0.0592168 0.199022 
0.09200120000000001 0.0506158 0.194783 
0.0047791 0.0154338 0.187815 
-0.0269336 0.0142779 0.2387 
 0.062 -0.0508442 0.168298 
-0.027 0.0204778 0.168909 
0.0703424 -0.00149381 0.145811 
0.0397498 -0.0409845 0.2407 
0.0611422 0.0254013 0.142313 
0.0252941 -0.0615 0.168548 
0.0531436 -0.0154975 0.2387 
0.0300053 0.0489186 0.158272 
0.0185 0.0765774 0.218607 
0.0893181 -0.0240141 0.160448 
0.0308633 -0.0139487 0.2332 
0.0478074 -0.008466970000000001 0.2387 
-0.00339335 0.0599966 0.1502 
0.0590627 0.00363878 0.144392 
0.0474758 -0.0587027 0.19635 
0.051107 0.0602382 0.223032 
0.0903967 0.0526808 0.205202 
0.0800738 0.02615 0.16534 
0.0880557 -0.0223462 0.174566 
-0.0155244 0.0231392 0.2492 
0.0413043 0.00377996 0.2332 
0.0865168 0.0531102 0.1842 
0.044267 0.0213795 0.1502 
-0.0187538 -0.034914 0.1502 
0.0816398 -0.008992730000000001 0.169453 
0.0159828 0.0525 0.158008 
0.041696 -0.0122074 0.2387 
0.0392996 -0.0453935 0.1502 
0.0716285 -0.0190244 0.137483 
0.091447 0.00772915 0.188449 
-0.00544158 -0.0176602 0.2332 
0.0427334 0.032301 0.2407 
0.0119272 -0.053773 0.172021 
-0.0173848 -0.00779058 0.2492 
 0.062 -0.000806313 0.235258 
0.0165 0.0596205 0.231113 
0.0124772 -0.0401704 0.1812 
0.0411255 0.0491157 0.1502 
0.0170968 0.00215269 0.2387 
-0.0226001 0.00566869 0.1632 
0.0598932 -0.0247225 0.2332 
0.0580792 0.000575878 0.241028 
0.0241267 -0.0615 0.163351 
0.0506519 -0.0622809 0.2062 
0.0285885 -0.0535224 0.190789 
0.00161551 -0.0135867 0.187876 
-0.026999 -0.044468 0.155529 
0.07371220000000001 -0.0116797 0.153423 
0.0578167 -0.0298753 0.2387 
0.0740962 -0.035 0.134435 
 0.041 -0.0472084 0.152101 
0.08796229999999999 -0.054 0.201432 
0.0726304 -0.0145704 0.136481 
0.00409446 0.0346117 0.175891 
0.0900825 0.041714 0.1812 
0.0970239 -0.00918573 0.185355 
0.0296536 0.03275 0.151352 
-0.0365319 -0.00219205 0.245401 
0.015843 0.051189 0.242993 
0.00176098 -0.0206444 0.2387 
0.0410716 0.0486623 0.1502 
0.0221504 0.023145 0.2387 
  0.04 0.00192317 0.152262 
-0.0204407 0.06391189999999999 0.209205 
0.016126 0.0825 0.167461 
0.0257117 0.015278 0.196315 
-0.0234524 0.0615 0.181457 
0.00301518 -0.00115254 0.2387 
0.0157908 0.0396329 0.2387 
0.0519089 -0.0366157 0.180239 
-0.0253461 0.0499996 0.200819 
-0.00756147 0.0526678 0.1582 
0.0274382  0.043 0.199065 
0.0534834 -0.0390552 0.243202 
-0.0192836 0.0615 0.151042 
-0.0127176 -0.0545054 0.191463 
0.049894 -0.0387616 0.180083 
 0.062 0.0467237 0.221583 
-0.02698 -0.0406006 0.152655 
0.065391 0.00440555 0.2492 
-0.027 0.0415661 0.184252 
0.051426 0.0585519 0.211593 
-0.00197706 0.0615 0.156801 
0.0623677 0.0160611 0.2387 
-0.029914 0.0166773 0.2407 
-0.027 -0.0389412 0.213602 
-0.027 -0.0330606 0.236725 
0.0020269 -0.0437801 0.2407 
0.0429386 0.00988848 0.1632 
0.0369241 0.030539 0.1502 
-0.010879 0.0644544 0.211699 
-0.0168162 -0.0251698 0.2387 
-0.008185039999999999 0.0575 0.153305 
0.0912155  0.043 0.188027 
0.058883 0.0524575 0.222183 
-0.027 0.00348954 0.174303 
-0.0147167 0.0175465 0.246823 
0.0591128 0.00240302 0.1862 
0.08331089999999999 -0.00648706 0.179481 
-0.0124932 0.0320115 0.1582 
-0.0025 -0.06445380000000001 0.201351 
0.0310501  0.043 0.169165 
-0.0269914 -0.035959 0.151538 
 0.062 -0.057628 0.161502 
0.0707935 0.0388112 0.2052 
0.0460057 -0.0195544 0.237969 
0.00577476 -0.0638117 0.199012 
0.0679044 0.0475886 0.2052 
0.0926453 -0.0266886 0.180349 
0.00510704 -0.0456054 0.2332 
0.0185 0.0749133 0.191383 
0.0185 0.0577614 0.206144 
-0.0157931 -0.0471231 0.243202 
0.0586901 0.00502582 0.244771 
0.0364637 0.0392867 0.1842 
0.0225764 0.048827 0.1502 
0.051679 0.00217115 0.2332 
0.0113565 0.0274723 0.2387 
0.021122 0.0621107 0.197032 
-0.0102436 -0.000305599 0.2387 
0.070933 0.0306675 0.132522 
0.00250744 -0.0128077 0.192171 
0.0205468 0.0500793 0.2052 
0.0562583 0.0185802 0.2332 
0.0532036 -0.0452802 0.230085 
-0.0199632 0.0281297 0.2407 
-0.027 -0.0364526 0.151939 
0.0968064 0.020746 0.203812 
0.0268481 -0.0246868 0.186205 
0.0215061 -0.0615 0.156537 
0.000650865 -0.043 0.197208 
0.0418284 -0.0553659 0.19627 
0.0580469 -0.0220338 0.2387 
-0.0107915 0.0279691 0.2387 
-0.0126216 -0.0537434 0.219295 
0.01437 -0.0548585 0.238063 
-0.00345693 0.0270647 0.1582 
 0.062 0.0437955 0.212089 
0.0195328 -0.0204176 0.1812 
0.0398991 -0.0615 0.176785 
0.0400455 0.0454534 0.242299 
0.102095 0.0204007 0.180158 
 0.062 0.00197725 0.209369 
0.0441369 0.0285726 0.2492 
0.0740137 0.0296168 0.135098 
-0.0124888 0.0607695 0.200381 
0.0375092 -0.0615 0.189668 
-0.00115421 0.0553725 0.1582 
-0.0325351 0.00590363 0.234539 
0.009579900000000001 -0.0498947 0.238703 
0.0223958 0.0358672 0.1842 
0.0131847 0.0499861 0.191964 
 0.062 -0.0564161 0.155762 
0.0144232 0.0445546 0.1842 
0.0603637 0.0530052 0.1502 
0.0219654 -0.0328531 0.2332 
0.105057 -0.0133712 0.183384 
0.0715775 0.0251102 0.147046 
0.0849135 0.02149 0.167549 
0.0466734 0.0615 0.158265 
-0.000972014 0.0308648 0.1502 
0.0246422 -0.0176132 0.1582 
0.0839019 0.0323953 0.158476 
 0.062 -0.0633466 0.209955 
0.00894415 0.018544 0.2387 
0.0475514 -0.0607752 0.221808 
0.0365516 0.0124593 0.2492 
-0.00181095 -0.0535182 0.175328 
-0.0116788 0.0323222 0.2332 
-0.0107791 0.0046096 0.2332 
-0.0163217 0.0346116 0.2332 
-0.00441031 -0.0150392 0.2387 
-0.0250705 0.0306633 0.1632 
-0.027 0.0505263 0.187568 
-0.0081073 0.00576205 0.199745 
0.0229193 0.0610247 0.221122 
-0.016712 0.0427454 0.237061 
0.0980733 -0.0192619 0.18474 
0.016681 0.0575 0.151644 
0.0233459 -0.00480062 0.2332 
-0.0269938 0.00631741 0.161141 
-0.0223433 -0.0142836 0.2492 
0.0057693 0.0483952 0.1572 
0.0250508 -0.0382091 0.1502 
0.0180676 0.0261268 0.1502 
0.0682068 0.0165223 0.141444 
-0.016512 0.0299824 0.2407 
-0.027 0.0322397 0.167157 
0.0471732 0.0424753 0.181014 
-0.0269994 0.013148 0.161229 
0.021151 0.00743923 0.160538 
0.0878935 -0.0118017 0.162146 
0.0185 -0.0818673 0.187841 
0.008345429999999999 0.0544114 0.239292 
0.0325474 0.0332128 0.2492 
0.0430079 0.0146839 0.2387 
0.0300569 0.00383718 0.2387 
0.0233525 0.0486805 0.1502 
0.0583332 -0.0550581 0.238993 
0.101549 0.022291 0.184221 
0.0493391 -0.0171934 0.233204 
-0.00692254 0.0274507 0.2332 
0.00933924 0.0311891 0.1607 
-0.027 0.0583485 0.157981 
0.0732274 0.00198489 0.130227 
0.0317639 -0.0516613 0.203052 
 0.062 -0.0611913 0.192976 
0.0759108 0.0170448 0.128752 
0.0372495 -0.0615 0.173637 
-0.0223903 -0.000692937 0.155562 
0.0570006 -0.0177383 0.1862 
0.009671630000000001 0.0200021 0.1812 
0.0443164 0.0115952 0.1502 
0.0624598 0.039292 0.1812 
0.0165 0.0785032 0.202753 
-0.027 0.0365827 0.199107 
0.00911087 -0.0164911 0.2332 
0.0152999 0.0260711 0.187656 
-0.0211611 0.0259892 0.1502 
0.0250228 -0.00355163 0.150202 
-0.0166296 -0.0579285 0.226096 
-0.0021004 0.0429997 0.17776 
-0.0226801 -0.0151755 0.1502 
0.0300289 0.0142732 0.190482 
0.0255399 -0.0415509 0.2387 
  0.04 -0.0396319 0.154622 
0.08609700000000001 -0.0213154 0.164287 
 0.048 -0.060287 0.191686 
0.0304732 -0.0535001 0.196867 
0.008121939999999999 0.0389984 0.2332 
0.016255 0.0300186 0.1842 
0.0154602 -0.0466864 0.1572 
-0.01433 -0.0491034 0.2432 
0.0949546 -0.0053412 0.2052 
0.0936574  0.054 0.191074 
0.0691108 -0.0150134 0.144579 
-0.00250001 0.0609957 0.216147 
0.00517531 0.0289211 0.1607 
0.0375 -0.0575315 0.203097 
0.0185 -0.0818059 0.212668 
0.0199373 -0.00957831 0.2492 
0.0605415 -0.0546112 0.1502 
0.0164078 -0.0117648 0.2332 
0.0145096 0.0555 0.22728 
0.085178 -0.00545958 0.169178 
-0.0205038 -0.0230831 0.248788 
0.0134724 0.0615 0.187432 
0.009017519999999999 0.0462462 0.194636 
0.0118808 0.0241929 0.2387 
0.0453257 0.0387608 0.1502 
0.0137753 0.0542589 0.218674 
-0.0107442 -0.00461797 0.2492 
-0.0038832 0.0201914 0.2492 
-0.008495600000000001 0.0271044 0.1502 
0.0962085 0.0363255 0.196978 
-0.012434 -0.0548074 0.211717 
 0.041 0.0402413 0.156502 
0.0165 -0.07849780000000001 0.222526 
0.0534953 0.00242441 0.14996 
-0.00414121 0.0281571 0.2387 
-0.00665665 0.0615 0.155822 
0.0549325  -0.05 0.184279 
 0.045 -0.0321339 0.160435 
0.0153957 -0.0825 0.166408 
0.0109721 0.0575 0.152624 
 0.062 -0.0108835 0.236496 
0.0241832 0.0314856 0.1607 
0.008875539999999999 -0.0383822 0.2332 
0.0268578 0.0185772 0.1572 
 0.062 0.0608995 0.155248 
0.008438899999999999 0.0579789 0.22949 
0.0057619 0.0229603 0.1607 
0.0241083 0.0615 0.191409 
0.0452687 0.0187747 0.24618 
0.0761757 0.0349576 0.132936 
0.0378408 -0.0600136 0.2239 
-0.00573205 -0.043 0.182168 
0.0117183 -0.0439915 0.2492 
0.0212335 -0.0341459 0.158049 
0.0962749 0.0306824 0.197738 
0.00844979 -0.0430001 0.201372 
0.0164962 0.0263037 0.1582 
-0.0123705 -0.055871 0.200045 
0.0443948 0.00414318 0.2387 
-0.0110308 0.0388837 0.2407 
0.06558369999999999 -0.00493643 0.246214 
0.0596934 -0.0490851 0.227026 
 0.062 -0.0227094 0.230397 
0.0287012 -0.0362275 0.15819 
-0.008636039999999999 0.0510537 0.224566 
0.0529946 0.0209912 0.2407 
0.0165 0.0749411 0.218432 
0.0575662 0.028183 0.1812 
0.0515207 -0.0269688 0.2387 
0.060261 -0.0615001 0.193438 
-0.0034607 0.0480254 0.2387 
-0.027 0.0308207 0.152337 
-0.00223847 -0.0578585 0.228472 
0.0299749 -0.0401412 0.1582 
-0.0225797 -0.0264963 0.2387 
0.0992518 -0.00236924 0.184422 
-0.027 0.0423939 0.159625 
-0.00663685 -0.0272692 0.1502 
-0.027 0.0165327 0.174159 
0.0210142 0.0204862 0.1607 
 0.048 0.060572 0.20397 
0.0884383 -0.0343568 0.175229 
0.0265077 -0.0275115 0.1607 
0.0108159 -0.0126882 0.2387 
-0.00984204 -0.0547306 0.238414 
0.103036 -0.00618225 0.180076 
0.0693999 0.0258687 0.134055 
0.0314956 0.0517332 0.167087 
-0.027 -0.0234898 0.1907 
-0.027 -0.0205027 0.158055 
0.00683317 0.0615 0.172354 
0.0253508 -0.0139748 0.187815 
0.0165 -0.0736647 0.204554 
0.0136348 0.0284139 0.238692 
0.0547042 -0.065 0.201465 
0.0342794 0.0535001 0.199747 
0.0367591 -0.0067385 0.2387 
0.0471235 -0.00235588 0.2387 
0.0370142 0.0443678 0.2332 
0.0393841 -0.0110214 0.1632 
-0.0133801 0.0587513 0.227368 
-0.0232557 -0.0205119 0.1502 
-0.0198867 -0.065 0.208346 
0.0715427 -0.035 0.161851 
0.0463922 0.0536208 0.168337 
0.0684531 -0.00622089 0.141017 
-0.0264139 -0.0499999 0.190351 
0.0291571 0.0212303 0.2387 
-0.0108632 -0.0399301 0.1502 
0.0149913 0.0476679 0.238734 
-0.013 -0.0592283 0.191656 
-0.027 0.011331 0.156253 
0.0160375 0.0298709 0.2387 
0.0149662 0.0005736060000000001 0.1582 
0.0273458 -0.00241853 0.2387 
0.06812269999999999 -0.00551335 0.2052 
0.0224438 -0.053 0.241759 
-0.027 -0.0591241 0.220787 
0.0929489 0.00889802 0.2052 
-0.0269795 0.00404296 0.157372 
0.0572346 0.0175 0.18264 
-0.0269643 -0.0237461 0.153855 
0.012452 0.0275587 0.1607 
-0.0141823  0.065 0.209265 
0.0970762 -0.00179886 0.185266 
-0.027 0.0551644 0.202485 
-0.000791165 -0.0287184 0.2387 
0.068705  0.054 0.185447 
0.07973040000000001 -0.0155494 0.166146 
0.0471621 0.0301008 0.2387 
0.0462319 -0.0447745 0.2432 
0.0203959 0.0100894 0.2387 
0.0250906 0.0345368 0.2387 
0.009375380000000001 0.0538243 0.240767 
0.08653180000000001 -0.0193462 0.158047 
0.0635266 -0.043 0.20116 
0.0705269 0.0125857 0.145995 
0.0421977 0.0468829 0.1502 
0.0604494 0.0638177 0.213446 
0.0546855 -0.0434379 0.2432 
0.0356296 -0.02996 0.1502 
0.08308599999999999 0.0222386 0.171958 
-0.0200589 -0.06341380000000001 0.211159 
0.0599031 0.00224099 0.2492 
0.0205775 0.0275702 0.1607 
0.046922 -0.0629658 0.215789 
0.000442658 0.0191717 0.187815 
-0.027 -0.000428827 0.170501 
0.06752329999999999 0.0422352 0.1842 
0.0185 0.0769006 0.205815 
-0.0159049 0.00404423 0.2387 
-0.0007102570000000001 0.0206607 0.187585 
-0.0153265 -0.0548286 0.21111 
7.548430000000001e-05 -0.0429999 0.185305 
 0.062 0.0450853 0.240405 
0.0855515 -0.0135845 0.1842 
-0.027 0.0450728 0.203566 
0.0221627 -0.009897410000000001 0.1607 
0.0329133 -0.0380444 0.1812 
-0.027 0.0120227 0.16047 
0.09108280000000001 0.0179235 0.184287 
-0.0054008 0.0418082 0.1632 
0.0437451 0.0377196 0.2407 
-0.0268555 -0.000423824 0.1502 
0.028314 0.0379986 0.162586 
-0.0242022 0.0134377 0.2387 
0.0497821 -0.0104726 0.2387 
0.0496182 0.0567137 0.1502 
0.0529114 0.00854191 0.187815 
-0.0160762 -0.0369189 0.2387 
0.0257651  0.043 0.190212 
0.0324926 0.0512885 0.200004 
0.0729539 -0.0271443 0.2052 
-0.027 -0.0213614 0.206876 
0.0688313 -0.0174402 0.140362 
-0.024875 0.0285621 0.1502 
0.0551665 -0.0615 0.155802 
-0.0159678 -0.0168823 0.2492 
 0.062 -0.06326279999999999 0.208084 
-0.0312466 -0.0117839 0.2387 
0.0163221 -0.0264959 0.1842 
0.0632124 -0.0334594 0.1842 
0.104624 -0.0103585 0.183952 
0.00173229 -0.0160408 0.1862 
-0.00233656 0.0217459 0.1582 
0.0192656 -0.043694 0.1842 
 0.045 0.0180168 0.158382 
0.0476453  0.043 0.16308 
-0.0255604 0.061166 0.220734 
0.0147787 -0.0343438 0.1502 
0.0519024 -0.0615922 0.209628 
0.0102702 0.0266226 0.2387 
0.0336634 0.0289572 0.235286 
0.0958 0.0104548 0.180709 
0.0160321 -0.054 0.213666 
-0.0152296 -0.0162351 0.237614 
0.0721908 -0.0343121 0.147659 
-0.027 0.0056181 0.187244 
0.0290149 0.0247051 0.1582 
0.08153589999999999  0.035 0.157423 
0.0364613 0.0434485 0.2052 
0.0259399 0.0369328 0.2332 
0.0185 0.0751785 0.201482 
0.0313445 -0.0136361 0.2387 
-0.00683075 -0.0628505 0.216105 
0.0806337 -0.015344 0.167711 
-0.0123965 -0.0533582 0.22016 
-0.027 0.0553336 0.175178 
-0.00922219 -0.0615 0.165171 
-0.027 0.0449029 0.186891 
0.0269605 0.0306617 0.1607 
0.0201467 -0.0554999 0.165894 
0.0740354 0.0310772 0.149504 
 0.014 -0.0832937 0.20681 
 0.062 -0.0430269 0.170652 
0.0811617  0.035 0.158335 
-0.0212466 -0.0537199 0.1502 
-0.0130137 -0.0557272 0.1502 
-0.019 -0.0247116 0.154319 
0.0331081 -0.0180569 0.2332 
0.0567457 0.0296958 0.146709 
0.0125244 0.037151 0.2292 
0.0205005 0.0612337 0.1502 
-0.00272583 0.0450735 0.199303 
0.09501610000000001 -0.035 0.189566 
-0.0127956 -0.0547508 0.171234 
0.0447452 -0.0139733 0.2387 
0.0564803 -0.00868438 0.247268 
0.0469461 -0.0626645 0.197865 
-0.0158793 -0.0486456 0.227575 
0.0466508 0.060869 0.1962 
-0.027 -0.009717490000000001 0.22374 
0.0126061 0.0123219 0.238696 
-0.027 -0.0443765 0.153805 
0.0165 0.07538300000000001 0.175689 
0.0345076 0.0409756 0.2432 
0.06366239999999999 0.00311764 0.2492 
0.0834637 -0.035 0.176934 
-0.0155795 0.0460618 0.1502 
-0.0111151 0.00272601 0.191645 
0.025536 0.0496592 0.2387 
0.0317305 -0.0314377 0.1842 
0.049843 -0.065 0.206134 
 0.062 -0.0479697 0.171304 
-0.009034810000000001 0.00972725 0.1502 
-0.000116885 -0.046602 0.172457 
0.0843161 -0.047 0.18724 
0.00943973 -0.0254909 0.1582 
0.0712985 0.017676 0.1812 
-0.00562218 -0.0256952 0.2387 
0.105085 -0.0347364 0.183695 
0.0296953 0.0428111 0.2407 
0.00281912 0.0230766 0.2387 
0.0342585 -0.043 0.201943 
0.0329619 0.0245127 0.158195 
0.02412 0.0158649 0.1572 
-0.00738918 0.0466931 0.241416 
-0.0269981 0.00663035 0.152226 
0.0185 0.06033 0.223769 
 0.062 0.0569326 0.178118 
 0.062 -0.0434701 0.221224 
-0.027 0.0460616 0.181929 
-0.0063038 0.00903925 0.199745 
 0.062 0.0611394 0.199947 
0.0197775 0.0825 0.19034 
0.017761 0.0615 0.160127 
0.07410750000000001 0.0150312 0.135004 
0.0461746 0.00521819 0.2332 
0.0318923 -0.0296374 0.1842 
-0.0214935 -0.0634889 0.214352 
0.0445998 -0.0312493 0.1632 
0.043853 0.0193179 0.2387 
0.0041951 -0.00367853 0.2387 
0.0436791  0.043 0.165205 
0.0144735 0.0530004 0.237481 
0.000867279 -0.0615 0.18086 
-0.019945 0.022848 0.2387 
0.0101876 0.0615 0.168223 
0.0957533 -0.034441 0.187045 
0.0957413 -0.024443 0.191639 
0.0725645  0.047 0.192213 
-0.0102989 -0.0379536 0.1502 
-0.0269953 -0.0289285 0.161407 
0.0452763 0.0587037 0.227499 
0.0708302 -0.0361109 0.2052 
0.015097 0.0385016 0.2432 
0.00407676 0.0254949 0.2387 
-0.00665995 0.0615 0.15992 
0.0524367 0.0178517 0.1502 
0.0597835 0.0239597 0.143671 
-0.00193805 -0.0556883 0.235585 
0.0312579 0.0342728 0.1502 
0.0534542 0.0288062 0.150001 
-0.0184973 0.0615003 0.189611 
0.0157 -0.075992 0.228675 
-0.00766808 -0.0615 0.159865 
0.000181349 -0.00766846 0.2492 
0.0900915 -0.035 0.159153 
0.0364803 0.000301581 0.1582 
0.0240373 -0.0261287 0.2332 
0.00603222 -0.0414026 0.244048 
-0.027 0.0603798 0.167351 
0.0227773 -0.0482192 0.2407 
0.006556 -0.0111611 0.2332 
0.00748131 -0.0416852 0.2492 
0.0485246 -0.0138816 0.2387 
-0.0025 -0.0588844 0.202765 
0.0193 0.0580481 0.225906 
0.0884702 0.017539 0.2052 
0.0391895  0.033 0.238914 
0.0159587 0.0439256 0.240307 
0.0529405 0.0615 0.15302 
-0.0177029 -0.0610204 0.203596 
-0.00367185 0.0429999 0.181089 
-0.0241107 0.0615 0.174005 
0.0650008 0.00921377 0.2387 
-0.0253804 -0.0236804 0.1632 
0.0157 -0.067551 0.204837 
0.0145854 0.0550284 0.2372 
0.023795 0.0435255 0.2387 
0.0386042 -0.0282837 0.1582 
-0.0269693 -0.0221066 0.152698 
-0.035943 0.00692335 0.2387 
0.0268481 0.0138476 0.1607 
0.0292161 0.0421146 0.2387 
-0.0153435 0.0060953 0.153198 
0.0788384 0.0508475 0.198197 
0.092225 0.0289686 0.197341 
-0.00918535 0.0605338 0.222471 
0.0849839  0.043 0.199538 
0.0396837 -0.00382656 0.187815 
-0.027 -0.00595603 0.235059 
-0.0151546 0.0549404 0.207986 
0.0165 -0.0598252 0.201032 
0.0157 -0.0726724 0.208967 
-0.027 0.00868408 0.162896 
-0.027 0.0519713 0.155847 
0.0232728 0.0146138 0.1502 
-0.00349563 0.0369743 0.2432 
0.0222636 0.00681657 0.150201 
 0.048 0.0594166 0.195697 
0.07048 0.008994520000000001 0.138632 
-0.00388444 -0.0541156 0.217643 
0.0232175 0.0535107 0.202211 
-0.0120901 0.0171298 0.2332 
-0.027 -0.0297984 0.198525 
0.0570723 -0.0578089 0.201694 
0.00282773 -0.0110982 0.1502 
0.055518 -0.0506772 0.243093 
0.00328473 -0.0481834 0.201498 
0.0398527 -0.015353 0.2332 
0.0303131 0.0535002 0.194595 
0.0883372 -0.0222338 0.175053 
0.0122367 -0.0289766 0.1502 
-0.00690601 -0.0138648 0.157982 
0.00386068 -0.0574674 0.230896 
0.0304626 0.04501 0.185321 
0.07277649999999999 -0.014555 0.130678 
0.00526936 -0.00626823 0.1862 
0.045699 -0.01932 0.233201 
 0.045 -0.00219108 0.163038 
0.0349602 0.0260711 0.18678 
-0.0247197 0.0265569 0.1632 
-0.00310684 0.060063 0.223764 
-0.0162633 0.0179808 0.1582 
0.0371057 -0.0388537 0.1502 
 0.045 -0.016362 0.157643 
0.07217759999999999 0.0510728 0.205204 
0.0165 -0.07037259999999999 0.197572 
0.0179874 -0.07773910000000001 0.161891 
0.07539410000000001 -0.047 0.189175 
0.06694170000000001 0.0232268 0.149514 
0.0157 -0.06663769999999999 0.216185 
0.0964421 -0.0229917 0.199649 
0.0360212 0.015526 0.1502 
0.0299877 -0.0179852 0.2387 
-0.0204574 0.0324818 0.1502 
-0.0122133 0.0588392 0.227127 
-0.00135469 -0.0354371 0.1502 
-0.0040107 -0.0550225 0.205598 
0.0958519 -0.00935152 0.192903 
0.00258733 0.0433271 0.1502 
0.0477785 -0.0547828 0.193906 
0.0277358 0.0615 0.154739 
 -0.02 0.0245723 0.15566 
0.0220026 0.00065054 0.1572 
0.0360955 0.00459726 0.2387 
0.0584408 0.0550284 0.237655 
0.0601874 0.0106766 0.186845 
0.0864601 0.029041 0.171802 
0.0502224 0.00268734 0.2332 
-0.0108962 0.0481867 0.1502 
 0.039 -0.025398 0.162624 
0.0193 0.0565971 0.22567 
0.0101796 0.0220368 0.1607 
0.0263004 0.000899101 0.187815 
0.0238289 -0.000936007 0.196236 
0.0223359 0.0103995 0.187815 
0.0241804 0.0412668 0.1842 
0.040262  0.065 0.205999 
-0.00565916 0.0506219 0.177623 
0.0399056 -0.0255362 0.186208 
0.00459465 -0.0605978 0.161201 
-0.0189365 0.0405132 0.232263 
-0.027 0.0137235 0.158768 
0.0165 -0.0657851 0.223463 
0.092125 -0.0275289 0.196199 
-0.00690523 0.0363203 0.242199 
0.0614489 -0.00139169 0.2492 
-0.0205062 0.0454343 0.1502 
0.0392174 -0.03625 0.154355 
0.00475811 0.0525101 0.2332 
-0.000189172 0.0642416 0.212284 
0.0224911 -0.0423895 0.1502 
0.0810438  0.054 0.201196 
0.0267148 0.0203094 0.2387 
0.0268536 -0.065 0.201906 
-0.000796834 -0.0615 0.151298 
-0.011058 -0.0279789 0.1582 
0.0137511 0.00411209 0.2387 
-0.00244277 0.0535 0.187772 
0.0311568 -0.053516 0.187212 
0.00988614 0.00171263 0.1502 
0.0185 0.0585213 0.20649 
0.0214575 -0.0332027 0.2332 
-0.00394025 -0.0535 0.199151 
0.011859 -0.0196418 0.2387 
-0.027 0.0517615 0.154348 
-0.0144109 -0.00611938 0.2492 
-0.027 0.0620588 0.215409 
0.0835805  0.047 0.193156 
0.0330775 -0.0187312 0.1502 
0.0032083 -0.0329438 0.2387 
0.0244558 0.0356517 0.157924 
0.0557541 -0.0619449 0.203047 
0.0168277 0.0499869 0.188268 
-0.027 -0.00964274 0.159442 
0.0494548 -0.0564213 0.23377 
0.042453 -0.0110717 0.187815 
0.0008824320000000001 0.0316733 0.156921 
-0.027 0.0520632 0.237756 
-0.027 -0.0219978 0.161548 
-0.0193354 -0.0561568 0.220919 
0.0962881 -0.031972 0.197888 
0.00552701 -0.0535 0.19978 
0.0836078 -0.0266307 0.158401 
-1.2666e-07 -0.018389 0.2387 
 0.062 -0.0192321 0.212428 
0.0152682 -0.0615 0.185863 
-0.0055619 0.0284521 0.2387 
-0.0108134  0.065 0.207468 
0.0461681 -0.0254698 0.1552 
0.00352461 0.0388997 0.1502 
-0.0115388 -0.0483328 0.1572 
0.07387249999999999 0.0187603 0.129582 
-0.027 0.0400569 0.173946 
0.0512505 0.0477595 0.2432 
0.0512603 -0.059457 0.21981 
-0.0267937 0.00991186 0.153219 
-0.00934947 -0.0377838 0.1502 
-0.0016619 0.0291837 0.1607 
0.0482661 -0.058017 0.2062 
-0.027 0.0298629 0.186843 
0.0650083  0.043 0.186982 
0.0721564 0.03111 0.147625 
0.0543306 0.0035693 0.186204 
-0.019 -0.0290618 0.156784 
-0.027 -0.060436 0.153483 
0.0846784 0.00741629 0.175889 
0.08015120000000001 -0.00830638 0.15562 
-0.0167313 -0.06401419999999999 0.2062 
0.0231559 -0.0536886 0.170565 
0.00135597 -0.0183092 0.2387 
0.0880862 0.00670353 0.161916 
0.0599474 -0.0615 0.187741 
0.0445216 0.0535 0.201149 
-0.0116416 0.0479504 0.18992 
0.028725 0.02069 0.1572 
-0.0163024 0.0590462 0.20951 
0.0165 0.0667534 0.212292 
0.0125742 0.0283598 0.1607 
0.0229888 0.010363 0.2492 
0.08759110000000001  0.035 0.18251 
0.0200611 0.0393003 0.2387 
0.0588569 -0.0598485 0.211985 
-0.00852545 -0.0552677 0.198702 
 0.062 -0.018006 0.205897 
0.0377889 -0.0330573 0.1842 
0.0545135 0.0561342 0.213169 
0.0444313 -0.0389421 0.1502 
-0.00563887 -0.019113 0.1502 
0.0842141 0.0279963 0.174157 
0.0020784 -0.0424689 0.2387 
-0.023462 -0.0299644 0.2387 
0.00322229 0.030574 0.2387 
-0.0208875 -0.00720457 0.2387 
0.0199064 0.0825 0.217629 
0.0502357 0.0468641 0.228906 
0.0456157  0.043 0.162296 
0.0443065 -0.00148302 0.1632 
0.0885272 0.0340747 0.2052 
-0.0154223 -0.0588924 0.22698 
0.0165 0.0663961 0.203338 
0.0613764 -0.0049551 0.2492 
-0.0141486 -0.0227531 0.2387 
0.096072 -0.0142593 0.195418 
0.0612561 -0.0322593 0.142199 
0.0323538 0.0136165 0.2387 
0.000728555 -0.0237729 0.2387 
0.0349864 -0.0615 0.164316 
0.103031 0.0108576 0.180076 
-0.009586620000000001 -0.00451185 0.2332 
0.0551222 0.023986 0.2387 
0.0501339 -0.0204882 0.233203 
0.0551861 -0.000102524 0.187815 
0.0548925 0.0507454 0.2052 
0.00147101 -0.0472378 0.205584 
0.0893386 0.0539054 0.1842 
0.00222168 -0.0172864 0.153626 
0.080356 0.0314445 0.16721 
-0.027 -0.0431037 0.151312 
0.0716029  0.035 0.163193 
0.0461114 0.0202182 0.233275 
0.0265757 0.0177387 0.2387 
0.0110415 -0.0331916 0.2387 
0.0811955 0.0146139 0.156664 
-0.027 -0.0157703 0.161714 
-0.00251836 -0.0553423 0.196399 
0.00471021 -0.0485887 0.1572 
0.00782012 0.00621296 0.2387 
0.0571185 -0.0300022 0.2332 
-0.0265867 0.0437735 0.237983 
-0.0078835 0.0108871 0.2332 
 0.041 -0.0570064 0.157208 
0.0494728 -0.0154982 0.1552 
0.084587 -0.0218261 0.176851 
-0.0229929 0.0451202 0.2432 
0.0445004 -0.009023059999999999 0.233207 
-0.00130687 0.033386 0.2492 
0.0582176 0.0084388 0.2387 
0.0955777 0.0536351 0.189768 
 0.062 0.0598051 0.156795 
0.0874291 0.0301045 0.15781 
-0.027 0.0559305 0.172677 
0.0247388 -0.0589824 0.1502 
0.0349217 0.0222543 0.183114 
0.0444239 0.0170135 0.1502 
0.0165 0.0647807 0.227505 
0.0143056 0.0239638 0.2387 
0.0235964 -0.0215815 0.1842 
-0.0200582 0.0559333 0.22367 
0.103641 0.0155128 0.184038 
0.000886058 0.0128704 0.1862 
0.0242239 -0.0387105 0.1812 
0.0502727 -0.0420426 0.2432 
0.0169268 -0.03275 0.155912 
0.01909 0.00664234 0.150733 
0.0158056 -0.0615 0.152645 
0.0258968 -0.043 0.201349 
-0.027 0.0565607 0.174494 
0.0185 -0.0715942 0.208741 
0.0321275 -0.0515639 0.170411 
 0.062 -0.0586782 0.208354 
0.0206487 -0.0110295 0.2332 
-0.00789902 -0.0268314 0.1502 
-0.008071729999999999 0.0155241 0.187815 
-0.0269796 0.0123177 0.158753 
-0.022055 -0.0399855 0.232476 
0.00252313 -0.0149087 0.1862 
0.0296655 -0.0122925 0.2387 
0.00208668 -0.0355902 0.2332 
-0.027 -0.0312861 0.159116 
0.009027179999999999 0.0587772 0.227297 
0.0867776 -0.034203 0.172352 
0.0375 0.0504504 0.230254 
0.0048273 0.0189847 0.186736 
0.0456329 -0.0332785 0.2432 
-0.0005485690000000001 -0.0221466 0.1582 
-0.027 0.0328919 0.184069 
0.0457996  0.065 0.204387 
-0.027 -0.0518411 0.230384 
0.009165029999999999 0.0468906 0.1572 
0.08760370000000001 0.0223061 0.173783 
-0.027 -0.00337581 0.169067 
-0.0208036 -0.0499985 0.204441 
0.0602035 0.0455846 0.229859 
-0.0116068 -0.0376198 0.23283 
0.06687899999999999 -0.035 0.154415 
0.044875 0.0060954 0.2387 
0.0923157 -0.021657 0.180178 
0.026518 -0.060951 0.221325 
0.0362864 0.0536067 0.1582 
0.0400324 -0.0403649 0.233204 
0.0956422 -0.0174842 0.190505 
0.0539739 0.0285608 0.149481 
0.0157 -0.0708979 0.206037 
0.0236818 -0.0548902 0.237976 
-0.000402981 0.0432195 0.2432 
-0.0130238  0.065 0.202749 
0.0142836 -0.0308696 0.2387 
0.0553815 0.0119261 0.2387 
 0.062 0.0583751 0.178215 
-0.008078500000000001 -0.0577021 0.230251 
0.0133908 -0.0272085 0.1812 
0.00249628 0.00907899 0.2387 
0.0689109 -0.035 0.136979 
0.0306726 0.0450462 0.198482 
0.0167352 0.0055939 0.2332 
0.0337137 -0.0196762 0.189648 
0.00679172 -0.0174316 0.2387 
0.00456 0.0167478 0.158138 
-0.00641862 -0.0039234 0.186659 
0.0850756 0.0528124 0.1842 
0.00549251 0.0486964 0.202494 
0.00648182 0.0513967 0.1502 
0.0525887 0.0236481 0.1812 
-0.0265877 -0.0615 0.188325 
0.0326207 -0.0489278 0.242634 
-0.0194874 0.0615 0.176233 
-0.027 0.0583518 0.222692 
0.0232419 0.0408259 0.1502 
0.0573863 0.0284229 0.1812 
0.0575532 0.0273721 0.1842 
0.0561176 -0.0499685 0.18807 
 0.062 0.0459932 0.241149 
0.0185 -0.0723915 0.17477 
0.027473 -0.0069587 0.2332 
0.105072 -0.0260942 0.183555 
0.0185 0.07310899999999999 0.174659 
-0.00101503 -0.0584777 0.161203 
0.0929427  0.054 0.192749 
-0.027 -0.00205779 0.215303 
0.0172104 0.0102624 0.151711 
-0.027 0.0268019 0.208717 
0.0519054 -0.0300324 0.178537 
-0.00277654 0.0450599 0.174718 
0.06537510000000001 -0.0151709 0.13808 
0.07574359999999999 0.036977 0.2052 
-0.00492633 -0.00478229 0.2387 
0.06808500000000001 -0.00891199 0.1481 
0.0165 0.0685891 0.209904 
0.0753032 0.00447131 0.155014 
0.0746185 -0.0483426 0.197007 
-0.0189677 0.0108879 0.154904 
0.0232758 -0.0045993 0.2387 
-0.00764162 -0.0445431 0.2052 
0.0212092 0.038098 0.2387 
-0.0234021 0.047878 0.1502 
0.0600253 -0.000321879 0.2387 
0.0576904 -0.0540107 0.218282 
0.00249465 -0.0095841 0.2387 
0.0420318 0.0327667 0.24123 
-0.0200649  0.033 0.241905 
0.0870263 0.00675825 0.157916 
0.0165492 -0.0575 0.155752 
0.0597565 0.0296358 0.143698 
0.0462772 0.0470775 0.228747 
0.0575656 -0.0277025 0.1812 
 0.045 -0.0357847 0.156689 
0.0318848 0.0500169 0.1572 
0.0470655 -0.0252766 0.186209 
0.0221376 0.016488 0.1502 
0.008531169999999999 0.011103 0.1582 
0.025701 -0.0525716 0.156542 
0.00145904 -0.0584993 0.157595 
0.0758803 -0.0157737 0.133231 
-0.0365429 -0.00113508 0.239034 
0.009760410000000001 -0.053595 0.189138 
0.0045426 -0.0363595 0.1502 
-0.0269973 0.00461769 0.159653 
0.0299689 -0.0301623 0.1812 
0.0375 -0.054959 0.226821 
0.0635817 -0.000197279 0.2387 
0.0352506 0.0251629 0.183427 
0.0109667 -0.0252199 0.1582 
0.051388 0.0368724 0.238967 
0.07533720000000001 -0.0274944 0.2052 
0.0774015 -0.00421384 0.15287 
-0.00538081 0.009070089999999999 0.2332 
-0.0269896 0.0227219 0.159799 
0.0182468 -0.01489 0.2332 
0.047097 -0.0277658 0.24141 
0.0269384 0.0101284 0.196315 
0.0545512 -0.0187444 0.1552 
0.0948426 0.0511845 0.202227 
0.0586698 0.0595151 0.222587 
0.052437 -0.0235925 0.2332 
0.014527 -0.0575 0.150595 
0.0355302 -0.0474424 0.240456 
0.07497860000000001 0.0273517 0.150447 
0.0778117 0.0191966 0.130653 
-0.00130813 -0.0123986 0.2332 
0.0165 0.0581193 0.223153 
0.0293777 0.0550637 0.2375 
0.07953499999999999 -0.0377204 0.2052 
0.0282414 0.0555948 0.236041 
-0.027 -0.0226566 0.201382 
0.0724442 -0.0443265 0.2052 
-0.027 0.000147173 0.212363 
0.087036 0.0347139 0.1728 
-0.0175395 0.00188168 0.1582 
0.0133214 -0.0499856 0.187049 
0.08149720000000001 0.00734101 0.182584 
 0.062 0.0385958 0.232166 
-0.027 -0.00367675 0.2265 
 0.062 0.0431915 0.160999 
-0.00683582 0.0642976 0.21213 
0.0549214 -0.0290421 0.233225 
0.0198233 -0.0175364 0.2332 
0.0177213 0.0167513 0.2387 
0.0548931 0.0490508 0.2432 
0.00176064 -0.00661667 0.2492 
0.0165 -0.07071909999999999 0.198335 
0.08588419999999999 -0.0219431 0.170805 
0.000514207 -0.0241854 0.1607 
-0.00348819 -0.0518692 0.177689 
0.0658299 0.0453376 0.2052 
-0.0203659 0.0429971 0.2432 
0.00669196 -0.0553839 0.23662 
0.0259383 -0.0167804 0.1607 
0.0206024 0.0503463 0.1502 
-0.0175862 -0.0354786 0.2432 
0.0544676 0.0625777 0.203204 
0.0510444 -0.0615 0.193897 
0.0167036 -0.0206115 0.150201 
-0.00708284 0.061406 0.220074 
0.0165 -0.0819864 0.225016 
0.0469702 -0.0537619 0.167678 
-0.027 0.0488187 0.17537 
0.0520287 0.0112999 0.1502 
0.0476735 0.0270959 0.2387 
-0.0204003 0.0642336 0.210491 
-0.027 -0.0580889 0.168727 
0.0385985 -0.0624883 0.197688 
-0.00233603 -0.0470885 0.15422 
0.0745763  0.035 0.184166 
0.0165 -0.0723022 0.211735 
0.05688 -0.0331652 0.146575 
0.0226124  0.043 0.200597 
0.0113412 -0.0585 0.156657 
0.0171392  0.054 0.205691 
0.0891758 -0.00250576 0.160617 
0.0509938 -0.0615005 0.181157 
-0.0105495  0.043 0.181539 
0.031079 -0.00579912 0.2332 
-0.0119479 0.0402168 0.2432 
0.0899055 -0.0338777 0.17777 
 0.062 -0.0430771 0.230845 
0.0132094 -0.028703 0.1502 
-0.02111 -0.0634088 0.21457 
0.030289 -0.043 0.17866 
0.0214671 0.0377729 0.1607 
0.00242209 0.0152932 0.1582 
0.0142673 0.0293321 0.1502 
0.000253322 0.0274181 0.2492 
0.0231505 0.0185298 0.2332 
0.0512016 0.00325498 0.2492 
0.0217285 0.0376339 0.1842 
-0.00577164 0.0408469 0.1632 
0.0165 -0.073869 0.201805 
0.0123557 0.0426206 0.2332 
0.000195874 0.009284799999999999 0.2387 
0.0648869 0.016476 0.138568 
0.0223773 -0.000963774 0.233206 
-0.00698228 -0.0307733 0.2332 
-0.027 -0.0410326 0.184446 
0.0271772 -0.0189634 0.2492 
0.0230448 0.0122312 0.1502 
-0.027 0.0587472 0.172739 
-0.0268667 -0.065 0.208944 
0.020741 -0.029015 0.151765 
0.0549111 0.0575328 0.203025 
0.0226869 -0.0417387 0.240974 
0.00860168 0.00776518 0.2332 
-0.027 0.0117964 0.226527 
-0.027 -0.0587203 0.171672 
-0.027 0.0279861 0.156304 
-0.0269739 0.0235938 0.158573 
0.00899348 0.0258571 0.2387 
-0.0269803 0.00380929 0.153407 
0.0118499 0.0278281 0.238693 
-0.0134206 0.0391711 0.1582 
0.0576278 0.0600727 0.223738 
0.0332538 0.00670228 0.1862 
0.0535536 0.0193909 0.1552 
0.09589979999999999 0.0126051 0.19345 
0.0607206 -0.043 0.158604 
-0.00250002 0.0623078 0.215157 
-0.027 0.0505987 0.21361 
0.0273574 -0.0327088 0.2492 
-0.00261466 0.0373073 0.1502 
  0.04 0.036623 0.155979 
-0.027 -0.0497613 0.157755 
0.0335101 0.032419 0.2387 
-0.0158286 0.0393256 0.2432 
0.0314954 0.0247146 0.2387 
0.0619071 0.0592054 0.226121 
0.0165 0.07921640000000001 0.205657 
-0.0224763 -0.0596641 0.199762 
0.0156763 0.0109829 0.1582 
0.0493136 -0.065 0.20755 
0.0130263 -0.0538079 0.176735 
0.076643 -0.0323292 0.152112 
0.0269532 0.00537005 0.186921 
0.000512273 0.0231469 0.18651 
0.0545182 0.0429983 0.175549 
0.0554619  0.065 0.200301 
-0.027 0.0535466 0.150914 
 0.041 0.0496582 0.156935 
0.0300944 0.0391847 0.2387 
0.0346323 0.038371 0.1582 
0.0560527 0.0615 0.172548 
0.0428553 -0.0405792 0.2387 
-0.00365369 -0.0179062 0.2387 
 0.041 -0.00631562 0.155859 
0.0753783 -0.035 0.132689 
0.00483936 0.0433223 0.1582 
0.0254797 0.0047395 0.2492 
0.0625433 -0.047 0.191369 
-0.027 -0.0565536 0.201888 
0.0186528 -0.0825 0.227085 
0.0724099 0.0185114 0.147878 
0.0149216 -0.0556636 0.1582 
0.0356761 0.037098 0.245702 
0.0571963 0.0569536 0.224829 
0.0258803 -0.065 0.201302 
-0.0224564 0.062663 0.212693 
0.0122154 -0.0172162 0.2332 
0.0165 -0.08053970000000001 0.194514 
 0.048 0.0573744 0.176664 
-0.0173465 -0.0437855 0.2432 
-0.0147206 0.0180968 0.150202 
-0.00371518 0.0122505 0.2387 
 0.062 -0.0518723 0.236295 
0.023573 -0.0623252 0.217549 
0.0597578 -0.0615 0.150326 
0.0239671 0.0513714 0.2332 
0.0314115 -0.0324156 0.243898 
0.0315598 0.0615 0.161572 
-0.016469 0.000834345 0.2492 
-0.0025 0.0582164 0.209754 
 0.048 0.0589437 0.183422 
0.00906681 -0.0243263 0.186201 
-0.0225955 0.00758679 0.1502 
-0.027 0.0398885 0.215001 
0.0600342 0.039456 0.232594 
 0.062 -0.0459218 0.207393 
0.0955044 -0.0378584 0.188685 
0.0532681 -0.0612467 0.198877 
0.0160161 -0.0555 0.194102 
0.0446567 -0.0178259 0.244094 
0.0486041 -0.0622889 0.217649 
-0.00361346 -0.0122066 0.187817 
0.0604368 0.0553561 0.1502 
-0.00203883 0.025158 0.1582 
0.0241045 0.0115935 0.1572 
0.0697817 -0.0208054 0.14525 
-0.027 -0.0353415 0.156195 
0.06680120000000001 0.00296491 0.136654 
-0.0242559 -0.0423943 0.1502 
0.0117671 -0.0535262 0.201422 
-0.0122167 0.0539847 0.171925 
0.0350462 -0.00366236 0.2387 
0.0803307 0.00560806 0.160042 
0.0307197 0.034592 0.2332 
-0.00482741 -0.0190147 0.152393 
0.0244995 -0.0293865 0.2492 
0.0634271  0.035 0.149004 
-0.0229299 0.0615002 0.194022 
0.0391784 -0.04202 0.2387 
0.0151938 0.0171099 0.1862 
-0.027 0.0557523 0.170528 
0.0469928 0.0470454 0.1502 
0.0642976 -0.0109241 0.2387 
0.0165 -0.0731537 0.185972 
0.0918263 0.00816334 0.192784 
0.0566066 -0.0115158 0.146848 
0.0537265 0.0609986 0.202904 
0.0331046 0.0465367 0.1502 
0.0136867 -0.0544446 0.187965 
0.07534009999999999 -0.043 0.202996 
0.0203526 0.08400000000000001 0.174623 
0.033711 0.0474216 0.187604 
0.0276756 0.0429379 0.1582 
0.0169706 -0.00719201 0.2387 
0.00496315 -0.0415616 0.1582 
0.0132191 -0.0124934 0.1582 
-0.0175984 0.0379227 0.1632 
0.0275874 0.0223517 0.1582 
-0.0351101 0.00493449 0.24768 
-0.0179699 -0.047451 0.1842 
0.059085 0.0436337 0.1502 
0.0203455 -0.08400000000000001 0.199846 
0.000259702 -0.0476025 0.198097 
0.0546751 0.0537333 0.240914 
0.0911892 -0.0301828 0.185502 
-0.0154927 0.0367722 0.2432 
 0.062 -0.0105788 0.233835 
0.014213 -0.022624 0.158199 
-0.027 -0.0274646 0.233018 
0.0437083 -0.0241041 0.2387 
 0.062 0.0436907 0.171215 
0.042501 -0.031499 0.2387 
0.00464182 0.0632125 0.198413 
0.09317400000000001 0.0504024 0.1842 
0.0861745 -0.00863852 0.164194 
-0.027 -0.0590027 0.185739 
0.024069 0.0319752 0.1607 
0.0123786 0.0371477 0.238697 
-0.00250001 0.0407131 0.232545 
 0.062 0.0508153 0.22173 
0.0145655 -0.08400000000000001 0.201581 
0.07318470000000001 0.0278107 0.13027 
0.0544911 -0.00011023 0.2387 
0.0285327 -0.0404273 0.2407 
0.0526643 0.0639179 0.2062 
0.0210605 -0.05528 0.206965 
0.0238289 -0.0108367 0.189376 
0.0303338 -0.0166327 0.186202 
0.0165968 -0.0615 0.184026 
0.0384286 0.0564977 0.23356 
0.0138698 -0.0615 0.176787 
0.0583887 0.0615 0.159083 
0.0185 0.0560238 0.228809 
0.0185 -0.0671342 0.169804 
-0.0169911 -0.0150909 0.1582 
0.000905048 0.0227237 0.1582 
0.0872392 0.0325973 0.173152 
0.0339673 -0.0631536 0.215273 
0.0182797 -0.08400000000000001 0.22689 
0.0472561 -0.00968167 0.2387 
0.09590750000000001 0.00436389 0.186764 
-0.0057499 -0.0136499 0.187815 
0.0185 -0.07483239999999999 0.215033 
0.0384495 0.0358189 0.2387 
0.0873818 0.0186708 0.173399 
0.0722511 0.0284879 0.151968 
-0.0239433 -0.0589047 0.226947 
0.0107101 0.0207076 0.2387 
0.0828197 -0.0368661 0.2052 
0.0571891 0.0477166 0.1842 
0.0245016 0.0152371 0.2492 
0.0580741 0.0601412 0.207482 
0.0436922 0.0205586 0.1632 
0.0885309 0.0186946 0.175389 
-0.008535249999999999 -0.033 0.242549 
0.0330537 0.0208085 0.2387 
0.0547893 -0.0138107 0.1862 
-0.0269854 0.0124544 0.156861 
0.0594806 0.053993 0.218389 
0.0397407 -0.0380091 0.1502 
-0.027 0.0468538 0.171414 
0.0724939  0.035 0.154882 
0.0575275 -0.0280874 0.1812 
0.0403075 -0.0615 0.155847 
-0.0157754 0.0480966 0.1572 
 0.062 -0.0491176 0.171221 
-0.0278754 0.0240987 0.2387 
0.0690302 -0.0278073 0.144499 
0.0772446 -0.0261907 0.152713 
0.008768669999999999 0.0615 0.187621 
0.0670492 0.044971 0.2052 
0.00256227 0.054985 0.237716 
-0.00401116 0.0356432 0.2432 
0.00175446 -0.0295694 0.1582 
0.0772333 -0.0283967 0.152702 
0.0129349 0.0144003 0.2387 
-0.0234639 0.0232123 0.2387 
0.0560378 0.0281899 0.1552 
-0.0208767 0.0586362 0.205628 
0.0135718 0.0291252 0.2332 
 0.048 -0.0573775 0.167544 
-0.00037861 -0.0506593 0.180084 
0.0636147 0.0300219 0.13984 
0.0849424 0.0247285 0.167219 
0.0007974809999999999 -0.00645943 0.191449 
0.0437032 -0.0577233 0.230193 
0.0189474 0.07199999999999999 0.187273 
-0.0226567 0.0362105 0.1502 
0.00246706 -0.00218965 0.1502 
0.013625 -0.059511 0.155923 
0.0458017 -0.0269221 0.184164 
0.0185 0.0650847 0.177568 
0.0384912  0.043 0.167414 
-0.0154229 0.0215161 0.2387 
0.0315262 -0.0551609 0.1582 
0.0177375 0.0615 0.189748 
 0.062 0.0554371 0.244661 
-0.00327979 0.0154904 0.199745 
-0.000123486 -0.043 0.1661 
-0.027 0.0046018 0.164147 
-0.0138758 -0.0244445 0.2387 
  0.04 0.010205 0.152209 
-0.0007216119999999999 -0.0515603 0.1572 
0.054625 0.000762003 0.2332 
0.048903 -0.0255473 0.1502 
-0.0020518 -0.0521712 0.1572 
0.0471071 0.0538687 0.179881 
0.0290101 0.03625 0.157167 
-0.0208898 -0.0476205 0.1502 
0.0371878 0.031649 0.2492 
-0.00115095 -0.0267884 0.1582 
0.0165171 -0.033956 0.1582 
0.0309466 0.0299717 0.2387 
 0.062 -0.0377379 0.152615 
0.0821693 0.00244541 0.180555 
0.0438916 0.00385806 0.2387 
0.09752470000000001 -0.0189437 0.180558 
0.0433116 0.0192766 0.2387 
-0.0215684 -0.0563903 0.215129 
0.0330941 0.0575 0.154903 
0.00466211 0.0492909 0.204088 
-0.027 -0.00611055 0.150286 
-0.0118629 0.0455691 0.1502 
0.0322674 -0.0615 0.177405 
0.0123703 0.0313855 0.2332 
-0.029865 -0.000192222 0.240812 
-0.0103997 0.0537673 0.174679 
0.0041401 0.033495 0.2492 
0.0766193 0.0166477 0.12946 
-0.027 0.0403551 0.159556 
0.0600798 0.008405350000000001 0.2387 
-0.0269914 0.0268353 0.160867 
-0.0145135 0.0615 0.169403 
0.009251219999999999 -0.0230876 0.2387 
 -0.02 -0.0353931 0.151481 
0.00240091 -0.065 0.201455 
0.0579877 -0.06471209999999999 0.210991 
0.0113083 0.0166421 0.151405 
-0.00596435 0.0444582 0.1502 
0.104907 -0.0268792 0.18167 
-0.00249625 -0.0473305 0.2387 
-0.0216698  0.043 0.173899 
0.0364714 0.0436731 0.2052 
0.0396104 -0.00469188 0.2387 
 0.062 -0.0455547 0.167394 
0.0432045 -0.033 0.24176 
0.0185 -0.0732034 0.228605 
0.0860612 -0.0193738 0.2052 
0.00636604 -0.065 0.206082 
0.07737910000000001 -0.0467835 0.2052 
0.0217901 0.0541458 0.163197 
 0.062 0.0447077 0.242467 
 0.014 0.0834833 0.218062 
0.0403777 -0.00766163 0.1632 
0.0193 0.061216 0.195522 
0.0570967 -0.0615 0.164593 
0.0312701 -0.011247 0.2387 
0.009039699999999999 -0.0360239 0.1607 
0.00105157 0.0140006 0.199745 
-0.00482372 0.0127296 0.2387 
0.0493455 -0.00924964 0.2492 
0.0454403 0.0275046 0.1502 
0.0597054 -0.0490852 0.246208 
-0.027 0.0259843 0.201015 
2.66237e-05 0.04674 0.203252 
0.0224695 -0.0449309 0.203394 
0.0118453 0.0358038 0.1812 
0.0108189 0.0078555 0.2332 
-0.0248528 -0.017811 0.1502 
0.0365825  0.043 0.196832 
-0.027 -0.0214873 0.230059 
0.00572908 -0.0615 0.182674 
-0.027 -0.000627229 0.158611 
0.0800816 -0.0102232 0.181114 
 0.062 -0.0266915 0.225016 
0.07779030000000001 -0.00813532 0.153259 
-0.0239187 0.043999 0.1502 
-0.008377819999999999 0.0508318 0.243067 
 0.062 0.0442222 0.242638 
-0.0327442 0.0163997 0.2387 
-0.0025425 0.0559781 0.1502 
0.063698 -0.035 0.1459 
0.0143078 -0.065 0.208905 
0.0165 -0.0785404 0.172293 
-0.0139085 0.00967702 0.2387 
0.0386231 0.0198107 0.156577 
 0.014 0.0830313 0.193321 
0.0505829 0.0317817 0.2407 
0.0717975 -0.0149386 0.137314 
0.0185 -0.0743061 0.22565 
0.0328594 0.0430147 0.2387 
0.0678482 -0.021473 0.2052 
-0.0134393 0.0410126 0.1582 
-0.0178147 0.008418770000000001 0.1532 
0.0489619 0.00454316 0.187815 
0.0352071 0.0326989 0.2332 
0.0104822 -0.0615 0.182978 
0.0236694 -0.0585 0.151519 
0.0340565 -0.0513869 0.243005 
-0.00984495 -0.0395833 0.1632 
0.0117366 -0.0193108 0.1502 
-0.0128986 -0.0452011 0.230144 
0.06868390000000001 -0.054 0.202958 
0.0545585 0.0470182 0.1842 
0.09674389999999999 0.00144888 0.203098 
 0.057 0.0501837 0.245207 
0.0168965 0.0288844 0.1502 
0.0320814 -0.00849626 0.1582 
-0.0227262 -0.043 0.182845 
0.0647821 -0.0140925 0.138673 
0.0185 -0.0558018 0.220284 
0.0918926 -0.0206088 0.193542 
0.0151867 0.0615 0.155432 
0.0519121 0.0427956 0.178336 
0.0285637 0.0185085 0.1842 
0.034129 -0.0204342 0.2387 
 0.062 -0.0580117 0.226034 
0.0488319  0.043 0.159276 
0.096799 -0.0488762 0.185596 
-0.027 0.0354942 0.207872 
-0.027 0.030515 0.234388 
-0.027 -0.00780329 0.162811 
0.0148877 -0.0216212 0.1502 
0.00318825 0.0613313 0.1502 
0.0119797 0.0362615 0.1582 
0.0397662  0.033 0.241152 
-0.026994 0.0313476 0.159319 
0.0398204 -0.0426015 0.18094 
0.0476589 0.0388333 0.2432 
0.0501273 -0.0236264 0.244341 
0.0111663 -0.0192519 0.158871 
-0.0239596 0.0370193 0.232907 
0.08230850000000001 0.00160142 0.180483 
0.0261802 0.023287 0.1582 
0.0271241 0.0352468 0.1812 
-0.0179232 -0.0379009 0.1582 
0.09157129999999999 0.00570032 0.18987 
 0.062 -0.0385474 0.168223 
0.0346333 0.0316053 0.2332 
-0.00623687 -0.00906469 0.2332 
0.0638856 -0.0489129 0.2052 
0.0118207 -0.0273696 0.1842 
 0.062 0.00220836 0.235918 
0.0165 -0.0747583 0.224443 
0.0126288 -0.0536604 0.181286 
0.0513387 0.0484508 0.2432 
-0.0178998 -0.0566041 0.214328 
0.0175059 0.0457434 0.2432 
-0.0269816 0.0071595 0.153964 
 0.062 0.0566883 0.181256 
-0.0155233 -0.0302905 0.1607 
0.0538769 -0.043 0.158692 
0.060293 -0.0615 0.186477 
0.0648098 -0.043 0.196093 
-0.0269594 -0.00467823 0.156845 
0.0895271 0.0194204 0.15766 
0.013606 -0.0288062 0.1502 
0.0174038 -0.060049 0.150452 
0.00950433 -0.0383819 0.2492 
0.00333384 -0.0175012 0.182696 
0.0957571 -0.00531405 0.187252 
-0.0134327 -0.0561849 0.234419 
-0.0188048 -0.0122677 0.160605 
0.07147240000000001 -0.035 0.148453 
-0.00534723 -0.0460661 0.167659 
0.0217877 0.00113299 0.1572 
0.0519071 -0.041044 0.177941 
-0.00115198 0.0615 0.152863 
-0.0138774 -0.0465948 0.1842 
0.0549842  0.043 0.16233 
-0.027 0.0177086 0.155995 
-0.0136321 -0.009417170000000001 0.1502 
0.0118923 0.0514533 0.2492 
-0.027 -0.0537119 0.151528 
0.0206931 0.0825 0.201153 
0.0655097  0.043 0.192445 
-0.009717180000000001 -0.0547423 0.238383 
0.0463178 0.0515455 0.223952 
0.0744875 0.00326189 0.149956 
0.0190245 -0.0043272 0.1862 
0.0878419 0.0428637 0.1842 
-0.0203148 -0.000549326 0.2492 
0.015266 -0.00470158 0.2332 
0.0167627 0.025829 0.1842 
0.0176286 -0.0373977 0.237308 
0.07867399999999999 -0.0370869 0.1842 
-0.0110679 -0.00294932 0.2332 
-0.0231511 0.0288156 0.1502 
0.0417269 0.055232 0.237037 
-0.027 0.0555436 0.215797 
0.0548223  -0.05 0.196511 
0.0146103 -0.0128362 0.1582 
0.0595673 0.0443687 0.230705 
-0.0111551 -0.0354527 0.1502 
0.0298221 0.0397605 0.24573 
0.00292922 -0.0127073 0.1862 
0.0662585 -0.0416648 0.1842 
0.0275563 0.0466626 0.186516 
0.0462253 0.0599289 0.224133 
0.000480948 -0.0328706 0.2387 
0.0537456 0.0324487 0.181196 
0.0752544 0.0313684 0.150723 
0.0167574 0.08400000000000001 0.210463 
-0.0325338 0.00496262 0.248723 
0.0424436 0.00420229 0.1502 
0.102214 0.0306525 0.184163 
0.0563134 -0.0319361 0.2387 
0.0304551 0.0536089 0.2332 
0.0398122 -0.0628899 0.215997 
0.0519077 -0.0309792 0.180281 
-0.027 0.0388465 0.151999 
0.0321537 0.0483643 0.150612 
0.0185 0.0595978 0.226344 
-0.0189785 0.00683638 0.153697 
-0.018482 0.0124802 0.159332 
-0.0120406 0.0534759 0.219896 
0.0257345 0.0230547 0.2492 
0.0156887 0.0825 0.204427 
